ply
format ascii 1.0
element vertex 710
property float x
property float y
property float z
property uchar red
property uchar green
property uchar blue
end_header
-17.8061119608737 12.653742158064858 99.57678785645896 72 73 144
7.017496224440166 31.130859692417634 88.5309891261916 183 161 171
-8.103158170261972 14.445917449438854 90.516991158548 168 172 187
-10.992742617897175 19.33280951507295 93.85716993895315 51 19 33
-3.6454913170256984 6.31189968184684 106.35009692030158 131 126 134
23.14410467081604 25.605046853258226 91.49943369281698 227 224 241
-38.16627564104625 29.055002867387437 80.15692851979796 78 141 176
-9.672836725261563 -3.1978993824357316 118.72386529949247 188 171 189
-31.062690726271605 12.22638120998735 94.31443366606005 225 226 237
-18.194067665105614 8.03822745501702 99.91123501175434 231 222 235
59.82180940553888 0.5497398823212072 121.05003916708768 194 181 199
12.20336284886224 15.750965584895699 52.25642970072221 222 215 221
-41.72005342088563 -2.2920555248590415 114.89277256542674 48 53 65
-41.529495497733045 1.6739896694287248 110.5701646550498 193 181 201
-4.137248592416371 16.388839804588084 95.26907041132314 232 228 240
-19.040226885918447 27.27804509846011 84.07257672764337 70 88 124
-74.47334583587255 -20.569958195518236 145.57258338237062 77 92 137
24.680443867778713 31.15110744159616 87.37872826108469 185 177 185
-48.03416124684248 9.539329249302792 98.40047642087802 255 208 202
14.132427549334235 24.35188322670297 84.00071990841943 171 163 180
-22.46818983160837 20.478681586224585 81.46627293619949 143 128 158
21.883192255611878 5.611974062298119 90.93325236387018 82 78 85
-31.216345036658332 -3.4102885580566045 113.4415057102384 255 255 255
-37.106714068838905 14.238286341631177 100.89969885950184 201 199 211
-19.966054642431605 20.935726270680235 79.92181061217133 97 96 141
-14.284394080255115 -5.262119426997724 124.51817036436917 63 81 121
-11.911903591988697 22.43287618024073 84.96928699736705 160 157 173
-25.183169813274564 -5.103026449571896 119.43463952581783 189 174 197
6.723463164736249 29.183400117508718 79.28404894093238 180 172 182
-22.519590675210612 -1.511042915265837 104.31420636699922 217 211 216
-44.90959076011038 9.766658212194063 99.19530587689454 248 223 223
29.918842455765994 22.324537419366578 87.22050564989962 208 205 219
-15.876626220411806 15.9090024289172 93.88668254056358 113 205 216
-9.449745422741039 13.716922711914544 92.8516321858686 101 94 116
14.884072487671478 22.58811112184061 79.5110770346983 170 167 176
39.16568227956164 35.71614567354002 135.68000677284513 171 169 183
-39.23669965447961 3.611485080038635 105.79842101586985 229 166 151
-36.396259232322244 19.917313747850276 88.45852140443675 215 213 232
-30.414199404593326 2.719603535499672 100.9898038938293 151 145 157
-8.321084223773925 22.18384978442316 89.33249387363685 187 188 197
33.97397448685288 25.834987460417548 85.04280888485512 179 172 187
-40.700967229670034 -7.472059481496222 119.6405297840084 120 133 149
-51.56501650321403 -15.486412269935549 128.0530270931057 212 187 214
12.8524995534764 14.452914434774561 97.2714349390804 27 48 74
-20.55950501763242 5.2787496418367 101.60689634959742 213 201 210
-39.10966140539352 9.209990531779585 100.4905332697716 205 120 102
21.869920309386096 22.220932222582796 92.70570559503338 164 150 173
32.26042844620983 19.976397836543853 89.32456153078883 184 183 194
31.41997113904049 28.78545992261988 86.13715657219142 177 167 189
-43.16469342719332 6.502931590232351 102.72224881700753 255 201 185
-39.74967073198488 24.821917002743422 84.1997476572145 150 161 223
-12.71857275919866 25.07551809744979 85.43393724233157 216 210 214
-44.31120984534622 -12.298084284598904 124.73620111899065 148 79 74
25.79136450714538 18.884932405341104 85.34850464283262 155 148 169
-42.438892849410486 14.619328556605504 94.18093180823527 161 121 107
-20.876913217813087 6.809442267052483 102.86905893236697 213 211 218
-35.20710074450402 15.752592685167349 96.25652079814186 104 113 139
-35.07585406724165 18.740692781233033 91.25888462455697 155 148 168
-39.25749913422056 25.352719387106266 81.6727468381099 71 37 118
7.373703792710999 24.080918694467808 82.55089138339038 182 179 195
-4.133478467469366 -30.945910861905617 95.98146390630438 53 36 53
-24.463581244701952 2.8472303696609362 117.4407015571407 225 204 212
-53.17811801204108 -10.84713774483068 118.98991146859525 164 155 175
-19.261537740666377 9.798162886843052 92.6715043099402 201 174 185
-41.67121862803349 7.72219878345724 100.46398861385902 245 182 160
35.049386014953626 21.68695348549126 91.71966688793418 150 160 177
-33.01395076753198 -2.865967894096537 112.05208715017316 237 227 235
0.965135306590942 7.2410247662917815 89.16192931550344 62 56 61
25.218472342041533 19.971794317409554 88.53493205373019 187 179 196
22.480817332596946 19.363954510177976 84.5956398479693 182 173 186
30.547322479848262 19.13926130013749 89.86942716960523 175 174 183
41.914299196256856 23.73692193604872 87.00224991681425 176 165 185
-20.586941641674958 26.702156951971006 86.30531552253086 113 123 156
-7.2563287560526275 20.01029588430852 85.75787522437265 173 176 187
29.026783687909305 19.538409727393866 89.611743376288 178 172 189
-26.83147815276844 0.5143196177940719 103.39371889188165 221 213 217
26.140217969704686 26.167351700648197 85.04047949895497 157 150 164
-6.7530940716995955 12.881848999677127 104.57765684582715 165 104 103
-35.710969002904065 16.95073420582858 93.3320896382589 179 183 199
-15.622718674281497 24.929030185752836 85.15844675399654 255 237 243
-28.090873330510917 0.623716980164934 102.2580603470156 227 229 231
32.06589623002714 27.89360000592972 85.28555347797212 209 206 209
34.10137620015126 7.257867425019544 106.71225402863827 158 163 180
-32.02000116689557 22.96488306501374 99.36010554123186 215 159 218
-52.495848030868565 3.247057788136118 113.84523608796837 167 158 184
-53.426221037274985 -12.814510313386862 120.97136444672984 213 132 163
-21.46296678386505 25.984335861705617 84.76923192262467 101 113 152
-19.624081458212544 16.645635037420753 79.87359428645087 199 139 153
-8.035756804346331 18.299147438240528 83.49492529355108 73 72 79
-52.68409371132138 4.3400717576596035 104.94654174459782 245 172 118
27.34977360172218 26.967530553852757 79.76465335059783 168 167 184
-41.07747620920829 -6.221300547293558 117.64094906087239 118 122 137
-26.891227041700326 29.514757730986418 80.90003596272125 173 201 233
9.58256256598034 11.249070609091568 101.45088864993893 68 48 67
55.73159019981655 7.849162879848426 117.43489825862957 151 146 167
69.74605740474364 50.49758859096934 305.9188758348528 102 123 136
-9.356378363599463 -50.53280814313752 162.6061922594628 91 116 130
37.433109797874536 21.545123625437895 93.42226587948856 175 173 187
-38.205851307840554 18.027083249157897 93.77470581234746 214 209 224
-20.83865049238407 -1.5505626326406299 112.89435206396588 242 232 234
-44.87196889601395 -6.045326804709585 111.88552589968602 187 115 111
2.1976626159928223 13.316845390842781 88.99639790212412 219 213 219
-39.309250973303875 19.545026363826405 105.79126257268511 181 189 206
-13.861259537072783 26.386957000406305 83.31313714393028 215 196 199
-31.43861772593999 24.49126434749459 86.20529705552106 225 224 241
41.08400346352027 27.99734990885954 93.7772582405625 198 195 211
38.353901948849305 21.515206176743682 100.81034798411358 175 173 187
2.1276701264594267 22.521546882347995 85.85163803717491 201 198 208
-16.28466906319169 26.670665734916643 83.02564230354884 228 216 218
2.9069664055371236 16.239205686100107 41.26625978272603 183 173 183
46.747885190053175 26.99433038482595 99.90536885660295 209 200 213
11.619963121622138 13.890555034265011 111.53693904544501 16 20 49
-74.82020394287892 -37.91368646420093 157.20911549646672 51 30 45
-30.433236876926763 8.09993638350267 100.23541523368856 174 179 190
-38.9902469885682 22.244216207914935 93.19265846098232 206 206 218
-52.64648948828446 16.300353629930505 101.9840438683403 165 134 118
-55.12665726868623 -44.67851226478939 180.0642365302652 89 57 64
-44.358359633268 -7.577030034592422 121.75474574772343 169 90 82
-33.21046202236407 -4.793315251425188 106.99648867756044 185 173 189
-18.76034802678717 15.670372141255346 98.50517282353509 215 214 223
-16.434757161650165 18.90054502374991 87.04617427029868 241 229 231
-3.504357360302452 17.444564481386553 94.4645575516437 243 237 249
-12.645162434126714 25.155494671936257 89.82387537454784 235 225 236
-6.327895002282455 -3.074791637802057 119.12947863380467 223 216 231
35.36892006445565 16.4169505532294 95.49297404623643 180 176 190
-2.015633973363099 16.748498822594676 105.33826836103695 205 191 205
-37.17761135801205 20.771246785904385 95.2556929147325 172 175 195
-12.742305288769465 19.384620096311632 115.36808741374622 44 27 43
37.19162022874816 18.67586058902917 135.23932739362047 100 89 88
-7.058428027284229 13.886788585406038 98.1669556842673 146 139 147
-9.666839084160708 -11.915679188884397 125.22602619182567 209 172 160
57.273369446917734 -50.248925110804244 156.67753390849452 187 161 158
-29.249266566338083 -12.986708451410424 126.85259700063648 117 30 72
-28.610372799475673 -6.171747728941186 117.72328771608863 119 76 90
-39.80277749309524 12.54425264849448 95.75387621160124 230 210 174
-9.557134795358904 21.624877350494582 54.19293565112336 105 30 56
-17.00481332760967 -5.142898003451412 109.44284068613277 128 80 140
-17.909618999166288 -17.773225261181505 130.63419900463484 127 89 120
63.178252491534124 -49.35134735288762 178.42302752435583 116 187 193
-57.58105822858226 -1.2289682689087902 107.82053876367011 178 67 119
-61.18729255080675 -11.632038938732435 124.09594663013209 117 59 109
-15.37175081854718 20.070432615035376 79.73567507369903 158 108 203
63.02624776518679 7.179441757522131 143.3588802569146 193 126 69
-16.80419217388813 -3.834803484357344 111.64342086472354 82 18 31
-5.132987871732874 1.0100493583668704 74.38784641937137 58 15 127
-33.94002357163751 -2.0065382649097803 99.92636075086229 201 177 179
-48.348764076782054 -10.09781914557867 117.27182026128291 206 195 201
-26.300723059765375 -35.67804436223305 156.75728469436817 27 82 114
-22.339478802154844 -5.5796527278099886 119.52652212613859 219 242 236
-5.500711353043631 -12.2414498020299 117.70167764761251 81 51 115
-30.459247779020682 15.709374669506877 94.83820307526133 80 119 133
-51.84055858753053 -1.4701552108885234 102.61031666537367 118 48 48
-16.90627772270222 -5.603111002351243 120.68295634179769 34 48 61
-4.043927508385273 -1.4822334685740668 116.69618981329137 164 153 187
-27.231663744260704 13.633648472887947 96.27353575819832 81 74 100
6.45732901159713 25.341281064199407 80.93608123092613 166 146 163
-29.236285924693686 13.882667322017594 97.90550913444184 144 116 157
-11.630017694188428 4.873924393986497 87.52844294707224 208 194 221
88.64808869533574 -49.82402822286588 180.99654245282164 65 48 44
-92.08933413270131 -47.887142723183636 185.1606853890666 72 70 77
11.457697153079003 29.42367271026233 95.57462882745922 149 141 172
87.79843463308919 -55.02086266399821 191.22036174283951 94 85 86
-30.33395389965639 27.96692231988379 85.1504073439061 231 241 253
-32.22683272351712 16.930940149247547 95.26084438705138 80 91 107
5.590035923023782 23.525435376077333 83.6533303434922 180 168 181
66.02155415843082 -48.61995257399304 151.88247204299105 100 35 45
7.044400829935443 23.134824449795662 83.65180679886684 170 165 172
8.589221307098388 22.912408738505093 84.24420798644428 169 161 172
54.078835686668704 -1.6570068537481746 111.92127739529668 209 201 203
-63.66007510970076 -10.783134508696703 120.65030848480545 158 163 169
-10.469305496855208 -28.03728918921861 108.03088608080877 52 37 76
-19.492958097692874 -16.2274115146784 140.3383055771031 83 64 92
-22.5993242642963 -7.393083088619145 117.32786610803628 164 144 157
-71.73492678265116 -49.24167778076893 184.24415277542442 104 105 98
-93.89971015006638 -37.47988032415544 169.79639217224667 18 9 29
17.432964230519726 26.726304062647838 77.96059853449094 210 210 224
-66.57739776894732 -14.428668427583192 129.1464389920258 194 158 184
8.142116536072448 33.33101299118262 85.1533703101648 238 231 230
9.594389641011938 23.03993129505249 72.27627099834729 222 222 227
18.879114928045443 6.444706033550663 94.35641367117158 79 76 77
8.677355830494735 25.80463231893506 79.96647965715972 203 203 210
14.94308842269355 31.70787839647024 114.75643817186005 163 155 172
-54.09762547438767 -3.3965175721302296 109.665382954998 138 38 71
11.63243604707318 22.50177295309811 85.30486751840444 166 150 171
-9.31606896419742 -42.10054720510954 157.64777851468685 138 122 129
-29.63329551314664 15.037116815643815 95.67999243427475 101 28 54
-75.63778690301287 -49.21150188122124 183.02987572738536 75 70 84
5.756840792050198 24.108349526769285 81.4766151259607 162 156 166
-26.038114442474278 14.494407426686092 96.71689583015772 190 177 177
-35.158177673726875 14.55577630702653 93.47706445510391 195 194 210
18.628575857627506 23.13642355965178 72.20362683137418 180 175 185
4.69914830508315 24.08981263654645 81.55500543298577 211 201 211
-41.34061603766807 -11.403278355920305 119.54475023849812 170 75 72
-36.03394201316995 15.911187862677684 94.68613773140824 215 214 230
-58.82120139204293 -14.136992953302462 126.70038530583068 187 124 203
28.480503019512557 24.718074406119065 101.41452036168707 216 209 224
-10.891864830450352 -15.519818907819943 112.20648243841049 238 225 231
58.30635589523955 61.16131979864835 457.5700626260177 60 45 64
-10.010904306438562 -48.11345501076607 163.9691669473409 136 116 129
19.645858457548204 8.262535932125013 98.3950077756331 11 2 8
-30.19723741586581 1.5893221528130363 102.23587854326624 203 203 217
29.975055907592015 26.903987910773772 84.85531125082623 173 169 181
20.079089923049008 18.642365378385094 76.64165766793427 203 198 208
28.898454476629656 30.16317803109344 88.36853863502078 209 204 212
8.889454469110772 24.065618166285464 83.56667597710656 180 174 186
29.664178378132213 28.020104338129183 86.55338270601402 202 201 210
-15.574554612065302 -49.59666698501383 148.43946964897117 164 151 171
10.879660621702541 -20.066041396411507 84.87471469194456 42 36 42
-9.318188428852753 12.055867584009642 92.09827917968418 121 128 134
-4.721145633978594 -32.658963060390995 106.34376657957682 50 39 45
24.251517017209004 28.58821572243455 81.4948925546905 163 165 178
21.82490434763991 -26.000308893367347 106.40888684644723 47 36 47
-9.701633459758389 22.13343259901073 89.08551421786903 119 196 197
-40.69300456175688 -4.15845895700803 113.70722589996036 114 119 123
-5.258395277121258 17.881954198110556 96.00483581848408 233 229 232
33.82826724440659 17.81656454704963 85.6350572602705 169 169 183
-26.16826121688485 8.956389819642126 88.92658765001153 197 199 208
-32.23513025127146 25.456523820038704 83.8327752695836 110 134 178
27.976384799816415 28.008595914378574 85.52106810959243 214 208 211
-15.045915582459953 -47.37783674405203 151.97057168105675 79 65 88
-2.9523158826783136 3.24070783018801 114.40627204896722 16 13 16
-22.691414848988202 23.300719729357624 84.26486401724944 179 176 197
-71.69897891330815 -26.02157543674385 146.53538592592722 46 59 82
3.036112422291218 -10.127553887273054 50.662488906525994 56 43 34
44.54105234729707 21.965923587364518 107.41904035555834 178 177 193
-11.673992479871194 0.0463395944121204 110.38870962488531 185 160 173
46.74481101888835 13.988697306286447 134.14483086230146 211 206 220
-16.717493139447416 -41.30442247220916 150.22697469038377 72 73 116
-18.056611212545498 17.05079036501335 99.20094068105261 249 253 254
-26.90992195035964 28.49978736467257 83.12291273447747 136 120 168
199.04298239188938 207.99328630948185 1329.0704907055592 60 101 140
-20.71515079972821 -10.87157149246526 103.25019022554511 177 128 138
-84.72183052670856 -47.31486902381808 179.6482378999548 54 34 44
39.50788495854209 28.545093020720767 90.49865492796984 175 166 181
39.569508948476944 23.234014899169633 87.6148922903551 205 198 211
-53.859394351156496 -6.083131598462523 113.87366873072982 196 188 206
-61.00979752655065 -6.566520721458279 117.44057288957798 123 20 108
-8.033828842717694 -12.178969109345616 124.2506441467924 222 213 214
-6.973758247551465 -15.791218150190597 129.144132083862 208 227 231
-9.083130480930969 -15.274724229488774 130.47048373041187 35 16 92
-32.05752623310505 30.465144953596194 80.6120724916106 121 158 204
-35.967483919137415 32.27124304611375 77.67774900035079 166 181 185
-12.850036501912648 -20.260737924873755 150.79752642556852 245 241 248
-52.38298675314645 9.92166182787812 98.90808405536973 166 57 63
-43.87064660722266 1.7984218407514048 111.93857797610123 156 159 177
-12.049344369074376 21.183241155853516 89.84721543195677 73 112 138
-25.25914326448638 -6.726456312556035 119.06881076293118 203 150 177
-38.03282188750114 0.017028373318932397 104.79119270378823 154 139 151
-5.685961287933143 13.887845527985704 91.45323208859897 177 161 173
-37.34525615233805 3.027019404104347 108.40754274154395 124 113 158
-32.61518742600309 32.77247242284727 79.88625966265042 204 199 213
-51.70061765008192 14.414604283832672 93.05611545992245 156 109 80
-25.731741578175075 -3.223442833224707 111.99217397362192 231 166 190
15.327224016321383 27.599225621249136 80.59007919931865 223 219 224
-33.30614530521065 31.291950745419125 76.61177409544624 151 114 150
-61.111889537134054 -10.14539081651045 121.54080918520484 161 163 172
-65.140398991312 -16.156123595964303 128.3053833820109 210 143 220
-33.31622716490481 13.6313431611922 96.07227880760337 174 206 219
9.386763393256704 18.56925763183274 65.72732889770863 164 151 175
-47.061804218630456 -3.480095796647147 115.56242807619547 168 60 57
-29.451075672860572 31.48477178079649 79.69889534022353 107 155 216
16.310215572349314 22.677809528190974 89.32250946955119 175 170 184
-44.40897428591171 0.31379897461266537 113.76459345328207 66 34 55
-46.73161677003282 15.049658559063415 94.44688723071145 183 139 140
-39.32812769806591 13.70961524892338 93.26217746631497 84 55 39
6.090269889152894 28.453601141051305 85.47773617256529 160 153 168
5.9800781897331365 26.935009394870196 78.02871895655572 224 216 219
-31.434663801312183 26.56187743977513 81.75511546450346 133 175 214
-47.35995103808523 -4.352705200866389 112.44725989276373 216 174 183
-4.81404275793604 12.605179231692388 106.65566355235524 26 0 54
26.246798222421074 25.33791003660481 86.07479263033753 209 202 210
28.80012265882533 22.225386628224246 88.46600825825229 151 148 162
-33.378112277962614 29.04521345756901 83.08816296508081 143 150 169
18.736211243407492 21.301381613163993 87.3361277259763 166 169 180
-42.75787047611763 30.473530474763063 76.48767987760478 59 47 69
-30.403976315953905 14.107913085432102 93.90231951638438 176 165 189
36.41808260470951 18.880719525084892 85.15107052979721 172 168 180
-19.51433297048367 10.063674661246589 86.11152133435502 225 210 215
-16.26972571224289 28.926889362285987 83.7651030271673 224 220 226
-43.366218785435386 28.061135490862444 77.68113785040957 132 168 215
-64.30431532895408 -11.454529700097904 125.01401536706035 101 86 97
40.62705379996791 25.596793895063524 87.94228563682917 204 202 214
-96.17499529284062 -33.2628227679617 177.4700879390374 66 53 66
30.5710036392533 21.778504500627445 89.06072208998664 173 171 183
-47.68588253251373 6.532082012429333 101.99149584986732 246 202 164
-48.423365744847 -13.148154580448841 131.73920152287675 165 51 43
-14.316553217524515 23.75934347004277 83.69778908957367 226 208 214
-48.12113409325074 -6.329134729589018 106.48479771952138 224 211 216
-70.6190594698539 -31.26763228259659 150.92441654401955 124 117 152
-55.22238666913395 -4.73250027861787 119.10615151784023 189 181 157
-12.399314080643054 21.197601153487945 86.87648888132787 141 126 135
-13.813795529648077 -39.635556031118085 143.03941342715945 118 99 116
-42.086158548172044 -1.7824761088023402 108.98121583942421 185 134 129
7.145605420737544 27.80344622033337 79.2567147413849 219 208 221
-6.302560151094527 11.595551855762599 106.59575740826182 148 105 112
-38.14233367743912 4.979198650992463 101.7097378480691 252 170 124
-38.52328431984901 12.81848456705333 95.55940631837514 46 25 67
-26.724815858470283 -9.02077413994731 119.91851454118255 178 193 188
-48.67414188544976 12.085848540329977 107.43856070321661 25 20 41
-29.709383198077663 28.45204982689733 82.06258306745957 56 45 77
-13.373383306401823 20.229876297774226 84.05568456080037 190 47 93
5.408995734152271 12.069546750018095 99.98891418412704 57 40 83
-2.2004495753450506 -16.130659654420526 76.43575811473616 128 132 127
-17.088951787794496 23.89423341994808 79.55249103972753 197 106 59
-10.004118333826622 -49.33533268041311 152.95794884510983 19 7 38
7.969269074133536 25.16305755964762 81.6110791354205 164 129 144
-18.167916455536762 -11.450621104345524 124.33618474294268 69 37 56
-33.32223444728716 18.20893689072405 93.51307342483601 232 223 229
-22.041738731133385 0.47860556207990446 103.11454362671012 188 190 199
-46.860275996493485 7.78340587044674 99.3216690379318 255 241 220
17.727671571368877 -23.61947649484238 108.11806994383362 98 102 97
-34.02097019690719 15.143075107247029 96.62237149979768 115 124 129
14.415480271245372 23.05505108564393 89.21188702114883 148 144 156
9.659301827331191 30.013273728901574 77.98082783638023 178 164 187
-45.3493551832695 13.738144333321753 93.34110171385959 254 214 204
-14.69999681312061 17.082733200605634 93.9188177616386 164 138 142
-56.474168461012006 -7.97396786157049 116.00617324449081 155 159 161
-14.811012631393735 30.42032501764458 73.05938325133837 157 79 148
-109.50477634804959 18.029663938353174 238.29458865472822 246 231 229
39.3795311548719 45.562771263432126 160.42291273041133 176 167 180
-29.21608305822983 29.454837948131992 81.02102586734468 89 115 200
10.862392900763027 30.546436408707837 77.33488087488163 156 154 161
-21.85220287967685 -16.91167149221355 133.37710569776758 152 29 96
20.513595197779722 23.6117048098473 74.33078694297927 205 204 215
12.478927846261435 17.722059151763325 56.212900137576696 167 164 178
22.11312358902348 21.8459574715693 83.15856066870121 159 159 173
-17.262203139785058 25.622037911739216 81.89374567554336 119 81 110
16.915320760363826 21.42191489757168 86.42111862364038 176 171 185
-25.239819894224627 14.29447059637791 87.94548751568793 87 147 158
-43.999997717367464 2.7786362322077576 108.45655233592024 118 119 123
7.461608883765311 30.447002643211206 75.69559815721087 209 204 205
33.26930393405011 25.06139501043256 79.11488799244785 176 179 190
-4.029579457530034 -13.324675574276496 114.01691273938931 25 20 41
25.997001755354923 26.781104028281515 88.93815557565709 222 221 230
38.6851073292223 27.518965477509603 91.32907716548837 128 118 156
-26.239055694384966 -40.73088201658966 168.73724001098446 65 84 115
36.544322877428975 23.932894409147938 104.59955278889024 153 151 163
-13.47004744199019 15.218544765081754 90.16891324772294 73 44 49
-29.851271418956262 13.432291083999335 94.63308022762291 123 121 147
-116.80279092965826 -34.641851991036006 205.39839733941514 60 60 67
-18.413929212476734 16.67994505096981 80.28204629645525 228 224 229
-2.887272851691336 7.099749216297632 96.27796134197574 82 59 60
34.35057758416091 19.646347165415097 130.76688745888282 36 34 39
54.7894526261497 26.99820729511295 339.8555262104141 93 87 97
9.33342929678987 -17.043636337546616 81.08103683979391 70 58 53
-41.33816758468936 11.185924602591339 96.57609291298387 240 236 228
-38.754748886725444 9.960648996272148 98.96826037828933 79 39 64
-16.28211636247236 38.989946038844195 93.04341812893122 69 17 41
-8.968766798808156 -17.056179768364746 130.85000032559216 173 224 214
-48.18632864044885 -9.374956796242074 118.56399169756631 161 68 74
-4.5859991114100085 -11.687666853388214 126.36855045249098 144 152 160
-3.7701987286644147 -0.6265822954773435 113.64903754598107 108 117 131
-41.76022965631195 12.564364667233901 95.3925950748642 57 34 56
-56.38258269876725 -4.3770647740981055 111.45532701680708 199 124 97
-10.760603733664313 10.679183072604536 95.09233423201228 149 158 170
-43.10032869423767 12.923581428953849 95.40302711564607 30 28 55
-39.74470563134623 -11.282468782137478 120.08795156846877 186 100 91
-7.973025077915707 3.339815637060907 107.97366668571172 174 95 133
-13.986243519543855 -8.783075454771787 120.40633286514726 94 49 82
-38.5563201548092 11.481572601870125 97.23212774687462 198 102 102
-31.79215111821966 14.622850728146105 94.53177577804041 113 104 123
-16.78130172178362 -8.311354291413029 121.8545752987158 182 109 91
-39.247296423210095 0.6988862492738804 109.91707326157436 232 230 242
28.221896043063392 22.405066905730315 76.64321978379223 119 116 151
-34.98191291440908 29.987620137854922 80.82965230503189 89 119 157
-28.546665139551767 -4.706851502215333 117.17208759340537 49 66 97
17.740369661265625 24.64443456759192 87.27733195473834 152 149 163
14.60446981182003 34.062110762132455 116.89005513646055 161 133 160
-9.205226118982782 9.419307011079567 93.49721628176309 109 96 109
-30.20750274989521 31.897639648392673 77.79200633825027 158 151 239
-11.088507444820445 6.5012432566665215 98.2403029136279 155 42 65
-28.192516286882125 -2.104538618162322 106.69684249456577 172 147 167
-37.20199446238592 0.42741202588673977 108.43158464087719 148 104 152
9.512332717003252 28.130060043518945 78.37276699637121 166 168 184
-39.60255970878241 2.620319919784441 110.6243639284371 57 64 156
-21.446753342976702 2.3869550496039174 102.1896400888589 237 205 212
-22.677396038369764 24.65572819350471 85.18933252040277 99 113 145
13.503775930552631 18.78848105169355 56.84455283691263 213 211 225
-14.551700076895191 -34.262366488860316 150.38135095609258 11 35 99
-40.31229298418006 6.3719441121218665 103.58152730722709 249 207 175
-58.50315017985418 3.5704379685248435 108.38911241702945 152 151 174
24.445740800095113 26.384288184554272 81.43017237156016 226 217 232
8.522448752506168 29.43179998559943 77.09302855239858 164 158 168
33.20301096370627 28.802604752028074 96.73840777657485 184 184 191
-49.11654454145679 -6.779805094157231 127.09291194237818 207 139 139
29.22855341233196 20.73120018503932 77.55696113509404 193 199 209
26.722004034725085 21.956325058467673 91.12371168000632 183 173 190
-6.742888436541358 15.869878994508257 97.123294257935 70 65 98
-32.94971799917486 23.386465549102184 83.3515296862447 37 15 101
-47.89826299924859 11.16173657205183 96.88824938181905 60 33 72
21.888403602826376 -24.162243833637994 106.86734448715002 80 73 67
15.5849874697807 10.647566451460913 121.39878345187472 48 36 51
2.2898367251272624 10.305345836271517 98.21187929465319 16 40 71
-15.819770191119098 23.745548968927054 80.69619852331297 250 234 239
-22.41431154413139 6.706923861384886 102.98045572422599 207 213 216
-10.102242051035834 5.473723798936718 104.81915842982747 143 15 63
-32.12841463679606 23.75050512048314 86.05955244457142 138 147 173
36.85126527633148 24.36396464144983 91.40352914909556 154 151 167
34.172720426860344 14.787948573315466 120.56047933916733 196 183 181
-53.95705467195226 -16.018082793749382 129.36242600830545 226 216 234
-31.418220396452995 -1.4387949281770986 102.05651663843088 255 246 252
-21.82855241829605 -13.191986493823403 117.87646885354803 179 166 150
36.41813994060027 20.525846162839187 84.51220308300373 193 193 206
-14.624754924153581 15.846008448805588 78.93049986602162 233 226 234
-51.63230088942396 7.651007582676116 99.54698552025603 227 126 83
17.90092647964253 32.02305792971212 84.32685395405144 226 221 228
-11.609612238607122 18.066372437010017 86.57128170522414 77 46 56
16.72277108819015 14.306014858625266 93.40922320719692 33 16 26
-33.98847012653362 32.44636291120543 76.8076564540197 27 121 161
-10.580403797806033 8.421843058024754 89.2365027253853 193 201 234
-14.024338635977786 -6.7540171853833275 118.99341266920946 156 109 112
-49.76153034677789 -11.134030584799094 118.34083344521831 170 168 147
-49.49699793209295 9.794019730696448 97.74284506214728 125 50 56
-27.493611865961544 -34.88444842515703 153.72126418102698 64 61 89
-31.54371015141438 31.24844593333851 74.5480929132459 168 128 153
12.507776684023906 30.510466632892722 81.8580102267458 188 199 208
14.226527604520227 28.657242910204932 80.08393697348305 215 213 225
14.099525195555554 22.963167137029203 84.28239917112353 133 119 133
-52.37063674313109 -9.210493688562071 117.92164983810726 181 146 163
-34.908808797183745 18.824710140158185 87.39281216610517 175 184 210
28.93584749512402 19.5988320134188 78.91094119647649 199 192 206
40.921605284277526 23.349291247724732 97.54519761146626 196 196 210
-23.53841641102203 11.124372322539033 92.1712276332075 198 190 175
33.435901404800404 27.881983667815 85.88576764756709 179 153 176
-46.64479236080059 -1.1301661410284842 112.82782780161976 166 111 113
-12.414735356071137 15.918342784636641 93.06687109026434 63 52 58
-22.041078637086017 20.212642988467174 83.55481508143488 162 132 194
-21.50952699327461 15.988631247739766 71.18190431637774 192 127 137
-41.34285035373962 -4.9508906212050245 114.33911835381856 37 57 72
-29.045371736316515 11.565477904753527 92.92750703988192 170 165 180
-60.26462246363765 -15.812598064426194 116.0072860988556 26 22 87
-48.72510707383314 2.974096932964567 109.5701404638685 35 0 107
-14.25476405421907 32.32431788212457 79.67706409264356 111 23 69
-28.953837257266592 31.59308029761586 78.31645123296039 143 166 219
20.769583712075672 40.48076583994039 120.03132834574356 187 197 207
-25.438529246032424 11.695193605416408 91.22563814872636 229 214 198
-11.016473369241147 9.265179811887723 88.99156042391259 48 17 15
11.991006557449404 25.401746962768293 80.97486713373469 197 202 215
-45.49639119257529 12.699860337265406 94.66865742042945 220 199 207
-102.87930024283537 -46.62097441517654 181.53306171591922 62 74 85
25.523224105098855 28.16724442541792 83.74335104004562 162 159 168
-47.20581519985368 -12.555281992850604 121.71399048068817 114 51 82
-15.274740243056911 20.4535929594818 83.77169282339194 116 118 186
-33.84933708673678 24.793818219524756 83.80419590364527 122 105 222
-10.822378157020685 1.4968048933850087 112.55771708580936 156 132 141
23.674302821390505 27.599650218763365 82.46117896896283 150 158 175
11.666803333565612 23.21874478181729 83.3139092327175 161 148 166
22.20204571516098 23.40383174383472 87.040055039857 153 151 170
-5.418692559359621 30.57243919327174 78.57958792645802 231 231 231
-12.873780502637455 32.38195458461793 79.37870917539891 200 195 203
32.745257291556136 29.38611389071448 106.38623214501956 143 144 162
-10.999692101998523 24.992928166391515 60.29379726455345 99 46 63
19.567723681549356 22.58809513344347 88.27319068927756 189 185 195
-73.90011056644695 -30.512013514636593 134.3573618903942 43 44 62
-18.696863157668588 13.247307535975484 98.2101328670154 192 199 205
25.08347640297836 8.731373109297582 107.60549170023421 12 5 13
-5.164733887338924 29.39919890079538 80.32515183025615 245 243 243
-70.47037912407698 -27.079149413628773 145.87337706320446 94 104 123
-16.978895503573394 -35.53798726861249 155.18029529526117 26 16 52
-9.984236228944008 30.316688551878755 79.76183077434253 238 234 241
-5.786724850593453 26.940630602214036 73.22412262273012 225 205 208
-31.714830552444287 2.5394976084150698 111.4357088870366 222 218 223
-43.89999876194214 -7.790445629749275 122.25342517286431 168 94 90
-11.227871316072529 22.88469213439092 89.92593103700563 165 195 201
-24.745405026238682 0.32279494000396386 103.78924373804418 225 223 228
-12.318913059343679 1.6359657012549 112.36684200233758 177 160 144
-7.968273308388637 31.60048947009013 79.70664120848575 236 224 226
-26.136201600746613 7.731282924710021 93.84485491104671 238 239 241
7.552840433934262 43.415914449421955 112.77840370027744 157 142 179
-15.767059099014235 31.592446305705046 73.89367534237644 100 54 109
-8.915422403849277 -22.88110048593714 163.5685174119583 115 84 103
-58.060822183603804 -9.506385253174486 120.51541307768044 152 126 142
-5.14484350934006 14.79334752890105 90.20251245444018 25 32 118
15.659618416869646 34.05834446293501 100.21922790216834 176 190 195
-37.206348840075 25.939433358318915 83.21948122416795 102 37 68
-11.894330637069112 -6.133342656603955 114.5365196050033 55 13 24
12.735858859219798 30.16515073023049 77.80985711989099 149 138 151
9.863396698187337 30.804703237352857 79.71687569397986 150 144 174
-34.310968294601835 19.67753958123655 93.95220663729496 190 142 170
6.682553580317915 26.221501558177206 80.15667133405461 140 137 160
14.77982734968671 32.71373730882011 107.03212976048879 155 150 172
63.17549308482008 72.08157850833011 260.8828219725482 194 190 202
-22.78922729557336 12.285143801915044 94.29144333936284 200 184 189
-14.082939489487554 19.88087451549898 77.88908352098935 145 120 153
26.800886332920523 28.88761559259982 83.61416340168044 161 160 169
15.426462998882904 22.6991939942084 84.5698135481189 144 141 155
-9.819752400093009 5.307980772985087 106.05517026040894 204 124 119
-46.17609517736209 12.77986113883477 91.55850582503737 197 173 170
-35.09380183623538 16.38886846457621 93.47967179889854 130 141 157
-19.75196140166463 -12.3999692088014 124.75734444570291 93 81 90
23.828027037252454 24.54862884238539 86.27340566358333 180 182 190
-53.1099357759976 7.064083966888148 115.84580725717787 226 157 119
-19.183603664490832 14.638712392706504 75.39255644679551 218 203 208
-35.17888935036336 -3.8748442202168896 114.06002842177361 126 113 124
38.37399996640099 26.25554122674495 92.79907696633012 130 132 147
-8.924923087140684 30.204241010503008 75.70275297223994 234 227 228
-41.81802725044286 13.980234472250855 95.77112617374934 116 87 85
-17.46434114175346 -6.671858081465254 117.78026465102545 70 41 73
-18.564507350985252 -18.309719991057694 134.1002434103675 225 190 191
-3.3626187811786274 11.689511933652215 84.40029233841 185 175 190
-13.685013980046042 13.5327915101718 88.61374993734435 51 31 75
-14.278658925818624 9.444712576961432 91.69365153156923 83 41 71
-25.93558414247999 -7.205913924957995 120.43965092246913 229 242 244
21.023260904121475 22.067671975442252 87.21613586991056 142 146 154
-21.851170105119547 5.160280422433838 100.63185094996454 228 227 230
22.509730905777875 5.649654866287099 93.54646837229123 63 63 70
-24.954842268749527 -5.726740865611812 119.19697887007847 216 217 219
-37.00692299459848 1.9499264846877147 107.59868347991548 215 207 217
-8.061653346754007 17.77282290464253 87.62477712838165 172 141 153
8.616194844795743 30.480129219818874 76.7280983255642 208 209 220
-40.532817049499954 -2.9101820395940456 115.82458585317025 177 170 183
0.844707837174668 8.876754078861643 90.2650333618787 64 72 87
-4.018710452132653 -7.6556920898124785 114.22597515064906 45 41 58
-41.75937871725442 -0.992271349098278 111.68270974137387 112 102 112
-15.361166651682002 32.48536909189401 78.78318505978608 158 149 162
-28.580504852215068 24.409786692660287 83.88680717193246 92 153 148
5.978739185745709 31.205398184466965 73.48271098249286 94 68 173
36.14904238039279 26.364897145953552 111.44455472219569 157 163 165
48.70831138136741 17.941918329611088 113.89684644129795 147 144 160
-6.208498182059551 0.8074969285470931 105.2877248773332 120 63 150
-30.878690112749343 -4.29704583413638 114.26203669146278 230 227 241
4.529537258025005 28.584138009427466 78.39486104115007 150 145 153
-33.692633977002856 20.950780026301924 89.45477619442134 115 98 107
44.58158035344299 12.970525095976635 153.4507888341737 56 17 5
-19.87139019876777 7.265053500380415 99.01846497759564 201 200 209
-34.443322090677505 17.645472340651434 91.6219874256065 173 171 190
-17.440829898440295 -3.310614377083313 107.34075327736097 79 64 73
-33.6737565281815 21.83066963540711 71.06470940110684 50 17 123
-32.78114006877005 16.03968026351538 94.54897909417146 135 148 164
21.459797387214014 15.682126385171872 95.84321082902511 18 6 20
-36.53996706928924 18.215234141785587 93.06279370954297 218 218 232
-6.351193225257889 13.012232850887955 92.46932437220443 118 113 123
-10.198075388153978 -16.321501387789688 122.2012727093564 127 139 137
-8.98187024796651 -10.270595705139119 123.79356495727615 59 46 105
-32.19971512405833 29.625798728437164 83.64763641965523 86 77 89
-35.22899015248581 33.27444293636007 77.07604200699845 130 55 68
-19.144013207516316 -5.88982281037017 110.08724440032596 223 225 225
-48.816967640438236 -4.422448525061229 110.64136960913578 194 153 148
-8.594827885752997 1.790983653852406 116.00688503345744 234 247 255
-10.770221319697162 -8.094049263406076 115.43158366615712 141 75 129
67.1474368170747 126.07665349862786 341.42395117676097 104 130 153
8.258479531587756 27.86560028844938 77.95792844286571 229 200 216
-61.86575968392993 -14.270748789101287 118.83698468266955 153 93 176
-4.0709789326650245 -5.986326651311063 122.4886500402123 137 131 143
29.726327932163905 21.336105349331437 95.96399027840691 119 119 135
-30.14734059718862 12.286518978772715 101.38530135476225 143 126 149
13.763777007156893 21.474432846905398 64.1536305802102 213 220 228
22.61110455379923 29.700382643406652 99.39863453901282 217 221 223
17.06862745952827 26.450868774176406 87.08868534600899 197 203 211
31.23676101320818 19.37450078915249 91.66399494483508 146 145 154
22.16399059636445 20.481581538602835 87.76787256001386 150 145 160
4.418109010656755 24.24536537095852 80.74168311594028 131 165 191
40.961477092752105 31.85977650879704 98.37109573569082 166 148 160
-13.42558041920629 32.9860870905813 81.40241784769862 254 252 255
27.67312654098165 27.43267358646452 81.4077556400272 142 133 153
39.951426948228246 20.641062384768897 92.93914441036507 155 144 157
-4.444787232980084 11.238975986769914 100.509032176009 66 19 31
32.56003457622892 26.85211157663308 86.65079165765796 141 169 180
10.667442549883996 28.126905461052036 78.7435017927872 187 198 214
29.5322988503513 19.617788604432057 90.78813997248385 155 148 161
-9.990994898390298 17.653666973366068 87.6065901170513 35 11 27
37.15198760717586 19.354684772564518 93.54714987826402 158 139 154
41.158279410000546 22.34257979626304 98.51362148732586 149 152 163
39.72728109668452 21.739821813494697 102.12608335959749 144 149 155
-12.828571337131947 -12.938488359970913 124.0544009526517 102 86 91
-19.503746698434025 20.044740520410524 78.31607123436326 94 73 136
34.360355483133596 25.901849047366767 82.23619356811521 164 160 172
48.249357404581126 23.574644841073685 114.7576344601766 144 157 166
-13.178561088892327 -18.37895121910608 131.56830153392465 203 200 215
-32.81637211798408 26.962532705197862 85.16163338125715 33 26 143
36.11811792095402 23.200058349348446 91.78929599207486 134 138 153
27.24719556295711 24.72914652414019 87.03345402664861 181 181 195
37.35561979878508 10.817451148494547 108.38318010302065 187 197 209
-29.667784049942142 29.930153673501096 75.86395675502703 211 206 255
-7.499007453003301 12.869926009890428 92.21719716526336 149 132 137
-35.70329354657748 -4.675755190026952 92.02292711081324 175 113 100
-26.714982082850224 15.4078996162277 98.35181815443758 238 227 227
-21.207117082544887 -2.3866722378418834 110.19269652535756 208 200 210
-47.02568250641985 8.038761312120911 103.20109897856747 235 168 145
11.678099073032522 12.758820824796413 99.14974342377407 53 48 56
-19.545071981965993 15.64987479256092 75.65203301121912 181 141 152
-15.892559168259188 25.52249794245919 79.3088451692879 239 221 226
-19.90378470193463 21.990132611036817 80.49700078972462 126 113 140
-2.58172040808489 19.46833363535458 97.90698009466351 170 190 198
-16.11963802752905 19.416391184588303 77.08540831924302 252 246 250
-44.577230980462275 14.116958334043987 94.5250095422046 213 187 189
-16.090105020349352 16.34285804530972 90.8459544856578 114 165 163
-44.01997126687151 10.876978210654116 97.60919517258102 42 45 70
14.380414721513116 -19.278808449190176 88.62065285533485 97 89 84
34.80317144078159 -30.03378403218089 123.28029340225652 127 130 113
32.841775718416486 25.89751949781176 88.30390908768672 142 113 133
-63.058249616920264 -13.619069277706432 127.15547959400428 183 166 205
34.31485817782404 23.678871708814388 88.20742831563356 143 144 162
33.45476442112251 26.749628866814156 86.23810544951307 200 198 205
31.208000801353947 24.154897500492766 87.2337195436472 135 133 147
-20.364225619888295 10.809647721392858 91.37743249954919 166 147 162
3.480168328891966 11.843415998771748 103.15635433278906 53 66 96
-65.10008107291222 -15.747272002230908 130.8173960410642 171 114 201
30.182354446892653 24.07427415668357 89.76251819970508 137 128 148
-16.78685457213921 23.656375966415915 82.17394341863219 246 219 224
-24.030834509794452 -9.009147089358148 120.38670350115791 44 81 100
-22.557596509899657 19.55287718626813 116.2145295013641 216 216 223
-15.36732486449262 27.670601893610886 82.4056177136449 200 192 200
-13.752159168626735 22.84441910786012 85.80982707900021 212 194 200
-10.440540740662271 16.258043610998506 89.39504223726962 47 45 50
-28.782435833955766 -44.16411838744082 185.56620134866986 37 54 90
-28.452215705592337 27.462947150551848 71.50786252064718 112 120 169
-13.85252476723246 33.593975026156365 80.43231561225718 136 70 83
-35.84905820381921 33.62926700851043 79.94625106756237 163 148 166
-34.44251980763939 30.38417005160625 82.04246135555137 77 87 112
-36.54094119632145 -2.80055436145837 109.74447740420896 173 172 181
-41.53388502174525 10.031850535145939 98.92459037406479 230 206 208
-56.402155918780544 -1.6524280422671098 111.63405365291933 79 37 46
-33.31034041347909 32.51344373498988 76.93104367235802 117 109 119
-10.751236392292581 -0.5126816979837485 111.56667500214222 117 104 110
-32.402896577722004 17.26200052442403 93.44592078302217 137 154 164
-5.774088010096449 5.534696254430825 103.83262784155393 126 94 95
-9.625595327113675 9.677830734651147 93.18752444615856 93 45 51
-35.04251117032868 14.378626444561554 94.04688746599669 210 207 223
7.474512143114545 31.920939911076 77.98597837743354 153 148 161
24.630684743594024 57.57257931049774 174.95622950906684 188 194 198
-3.990481207009505 13.297424605202774 88.01468809550298 23 6 124
-9.133072602637615 19.89463223853298 88.81168207488408 65 99 93
-36.30417780308734 20.009304096659207 89.77804406041302 118 121 139
-33.715625277746994 -4.95880288685585 112.96919591606789 173 173 187
-41.888378329954904 -2.531946987649771 113.40454521013118 95 90 100
-19.713968565831326 16.291349735403696 81.0903089821983 232 204 213
-31.617170510805668 -5.688213372893833 114.92481880551578 95 50 55
-37.46957086498142 16.101330238690963 97.69811326759208 173 173 187
-39.024837392659194 20.59725717357387 98.43164658121383 163 164 182
-23.251044788338138 20.328694975867855 84.25269385569126 97 103 146
-30.763504934816563 26.806937266967594 83.02510592029267 16 32 52
-15.786764041025716 25.422895426917307 80.64371275356807 205 179 183
6.804501045790448 27.66466002051098 80.95832530285762 209 203 208
11.358525384362508 13.78649627592441 96.33162029052815 64 114 133
-15.563368597050383 -16.854502483842865 132.87395466978452 202 202 195
-36.229601573678295 24.05270180293879 85.93547364923997 152 151 167
-10.890501876595833 -16.240755400513056 134.29556710729395 133 139 156
-39.44440822525228 -1.7384418388463614 110.5479127449792 100 101 110
-7.056407463371557 -18.483215310806123 132.09396865811073 204 194 204
-17.108396215871302 10.19160612306544 98.88083133556358 26 16 52
-36.88665327356782 24.237573161497814 84.63148355624269 100 100 175
11.266366295957958 28.727516071883738 77.66994039588542 125 119 131
10.289637310489926 29.655414524543676 78.54384401512628 161 173 180
18.301673649466977 23.382470850580646 84.37573912813369 128 121 150
-50.47719906681092 3.011847497905831 109.73465767690534 119 109 145
13.428408421455902 23.397076157089533 84.82639159814822 123 146 146
-43.35733587456518 -6.050902888143373 115.2253799625614 195 141 139
19.730238875819357 25.080287546702646 81.59737938131543 163 166 165
26.626475641171524 24.016195449414433 91.99199611268536 112 115 140
11.108420076362457 18.253702391269577 56.24776097957019 191 192 208
12.29503753532443 27.42413518197044 78.67818349480716 129 119 148
16.778109083889788 21.236953036383614 74.18466867737968 170 178 181
8.105923458783801 26.937460980426714 83.68278753655464 175 181 198
22.311358150630525 24.049785661619303 84.55568758162747 189 190 201
-52.50544152673666 -6.861570466244339 114.03271524541245 198 186 195
22.697004915565273 23.12881733866111 84.21486464715596 175 186 200
23.053172728839055 29.336023200761396 82.26008853571699 153 141 155
-28.91573534699504 14.734539104070508 94.58614812890535 47 11 38
5.745273122576101 26.94031048425408 76.68866314558188 77 82 120
25.191174041725212 28.682032274943865 85.49209054456684 117 125 142
-71.11203897243779 -30.62827625356122 151.32071997723688 212 214 234
19.780029436833047 26.868569341794807 81.72745498538416 185 179 189
30.77123724638054 20.7234160031884 86.46521597083438 144 135 155
28.57998858407238 25.61153022319998 93.06594852729438 116 121 139
-3.513857536126147 4.054847016717411 105.07055361144232 51 34 96
-16.351699788074733 -10.240258464220927 126.60902141338677 89 53 45
-26.48980431613868 5.355349591483811 96.21364474310718 222 222 224
-35.060012617372074 16.722950799217227 94.11486946040176 129 132 150
-42.735311557690245 -6.1072616261303025 110.53818285501917 166 103 109
-0.20438512074916068 29.299718635537243 82.62963027100584 222 216 219
-18.261270475036866 13.425399840105461 96.12048528781223 125 124 140
-29.471528983545088 -16.44701709132319 145.22866382290968 119 38 94
-73.01051194191417 -21.312460456691433 143.3800066057631 110 99 119
-6.5377398683545085 30.638013494188584 83.7737437008598 233 216 226
19.9862769352316 16.86775505159165 111.01643823245878 15 7 15
-5.237867586886628 30.248662619250375 80.08885853766066 234 231 233
9.936710759379821 12.64873084294104 95.63469606829658 46 79 115
-15.317168511934067 17.216765700295042 79.47255900032724 244 236 239
-15.872004836140418 16.81577754500399 83.79657346882306 239 220 228
-24.083512065556107 11.366805923144085 90.49495943213672 172 142 151
-96.80557559598566 -37.885486159814754 180.04045742503047 65 49 63
-51.134372475708716 -7.425397707062828 115.52654215537609 218 194 209
-3.722482088501129 27.7796334114289 81.98494364563595 233 230 231
-2.437482068223684 27.408645176757002 81.7471853627435 224 217 218
-29.94990981361569 24.156081198640393 87.25823719099621 123 101 98
-25.684745664291153 7.000815088656827 99.25909901967411 232 232 232
-2.692995003181249 29.658015612401677 80.62584034735703 239 222 232
31.388019876106675 7.250410220468918 103.31065599202425 96 122 145
-13.505086582663333 22.315562907953563 87.5023876217615 202 182 190
-33.30071581143051 28.050344399641457 81.91311975256025 27 21 58
-23.97989794087287 7.461276136640713 91.42277788285706 241 238 239
-17.46540245812898 31.600716695239527 95.68427828688051 162 149 160
-43.1692708555604 10.634586903407513 97.7303834624825 29 25 37
-14.077810802934335 19.592552855220994 82.50002303637547 229 176 198
-12.849954111643843 21.08305065382308 88.6697573508475 81 91 103
-21.423662469740133 14.874885634096476 79.95063628947182 222 183 183
-3.7571123829251225 -3.5411194723121526 111.85022373125624 108 121 130
-31.040683697443207 22.530013012727736 89.99652603191099 47 37 53
-26.584758894839887 30.221346303779278 80.24545963577064 144 191 240
-38.76176407957291 13.934390208709093 94.56578054577723 72 42 38
-12.692721261273949 12.231195983049682 91.08425266892178 75 44 40
-20.799666281508767 6.693186616919952 95.69361695334028 252 249 238
15.67711228185894 26.75634472141607 80.36449826303377 178 186 201
-33.29480784478132 33.02579741667565 79.56140068796243 186 183 186
-44.68614379921178 13.051020188064154 95.753595223956 93 90 92
15.81504917395215 25.06994612370527 75.85617974950264 148 155 168
-30.86860349888196 21.60555737473716 92.68372357255129 91 9 65
-32.97782607375773 25.469159861159376 83.76035600739742 76 70 156
27.320567922923807 22.58129191191087 84.97587229443972 129 132 150
