ply
format ascii 1.0
element vertex 712
property float x
property float y
property float z
property uchar red
property uchar green
property uchar blue
end_header
-13.231901465785679 -25.233645004219294 109.21263894405897 117 98 66
163.2859134863609 -18.200306061833132 341.0287987774021 135 136 125
76.51835606823624 -26.512471431961494 232.38278004344122 130 122 96
396.4561276423328 -42.65230773690754 543.8849804882722 150 154 135
401.89998180848556 -57.45984157777502 503.4683676598474 195 191 169
-94.39840083109439 15.425583741023335 123.9169852911665 74 70 67
584.041975121749 663.0665269394381 1242.6590156938867 85 91 82
141.00645922981897 -5.948933021485623 275.29043386185407 103 94 91
1077.665475888004 -136.18785831874865 1354.0563184573618 164 156 130
-34.52399065946752 0.20173623004211175 66.21058834696316 76 73 67
-628.7382791657393 48.986163602396644 543.9127066392501 81 81 89
99.8595227531001 1.7675801005491927 210.44829815010186 100 92 76
-84.99773843291264 3.4942078515424124 129.4996031094611 68 60 50
-126.41791877191153 3.8839293692215833 153.79515256219543 198 201 177
-33.66707400728843 -2.176534352920318 65.7190119482978 85 80 72
-98.17951537183897 -25.53549720730327 192.96191453785636 213 208 184
50.009786039909834 12.458248928907848 145.57700560819038 71 78 73
177.61781288711802 0.6697539015348667 338.11818765874784 81 73 57
-207.72963840526592 34.53507430011271 236.9934505479851 94 96 94
-30.385348578473852 9.997926674944047 68.31189075190142 86 95 98
-91.59581028082229 19.28008795286756 118.47764693286224 42 41 40
-57.05572414893707 14.075775703782382 60.63340784848359 91 93 87
96.14483324901215 -55.59609943727941 283.1047489429776 210 194 158
-24.15372069495887 8.648744867231189 87.65039155388435 109 104 96
-33.85005115236553 1.2866714375960615 66.31847086850641 62 60 86
-40.42652129877092 12.439599720692788 57.462168553811615 78 76 68
144.81691593662387 -79.17723445411762 367.4757608086796 238 225 187
-66.13090458872213 15.058545699064185 73.24699372199359 85 89 84
-273.424090677864 -260.2002742877387 681.2745911506795 120 95 60
-213.90030931011782 11.272882845067267 191.9335597745567 89 78 89
-146.893324521822 -15.087916814052441 172.43134080894734 94 86 64
-72.30712524198883 -17.073669953319904 178.24578954634063 204 190 168
101.86969107915097 -34.292019475381224 296.00729907377763 164 161 145
-37.25685876278535 -6.141038917155321 65.35804006706644 132 107 68
60.95410517789159 -18.98185451995399 244.19619816048177 171 167 157
150.63501433396297 -7.650910784774469 276.2208578365174 148 141 137
72.82397753139928 -8.536561214319109 240.20697130015589 88 88 79
-79.21960390280758 -24.689492803205248 180.1058874694008 91 88 68
164.51863440464675 -61.87345089463086 364.3212247498232 230 223 202
3319.978119649614 -647.3219818102914 5117.025397470163 152 150 128
54.980154629566954 -27.627659795081744 214.48213925401495 177 175 153
-62.444541808034266 8.361274893341914 64.97213035431832 101 95 86
174.82487622086649 -7.496137887239028 354.1073752757689 94 92 89
1.6452025545087703 8.730591358781847 66.02508967970078 133 145 143
205.44129456677234 -57.49543345628487 356.8887722338489 231 224 197
-37.693528497800095 -14.350639391726798 68.73809291838077 139 117 87
-84.3578118769678 -32.77442757398116 185.38900045292536 182 178 142
190.58888197355373 -51.53615778956834 352.73143354112193 193 188 158
-83.39883194847232 1.9562315109098292 130.855354868549 63 56 45
-23.12172331801087 12.756144224982906 94.90942510996717 88 104 110
245.04038962028721 788.7216723482177 1627.5575660457541 107 109 107
-16.743853663648263 5.512289962652929 92.56895399054656 114 102 90
-25.71496018178775 -17.864373185755415 71.16651733106328 69 59 44
-201.56556479276477 32.25475254341622 221.1576684042297 54 51 50
-68.23751992577394 15.525607294930953 67.84068065351497 109 110 108
-53.55105231489954 12.669644074048712 53.1426355763464 70 74 69
-38.17770396835746 -3.035715324866206 64.80471464245255 90 66 41
-59.95747173674854 14.787738117229226 69.43932488778883 122 125 123
-28.256820293576855 10.149273944158333 68.80432641272108 55 60 64
54.66560946677161 -20.62673068861196 290.783009869247 215 217 195
-43.95590546402593 13.069847141500823 56.59675570205103 106 103 94
106.91122042233741 9.2085299739403 219.48844001937334 88 82 70
-42.62116655996975 13.084004126372298 56.87503610314803 77 69 57
-22.373318534142282 6.209986787237843 88.39228800589096 87 77 63
-1.8168053504326858 8.195897906498809 61.57248065638567 93 108 106
-16.89132493062368 3.1728781483889468 91.59907746724038 152 140 109
-35.78363687086349 -16.150872446399664 69.1202243225483 65 54 43
-35.16083674701772 -4.218399533467748 65.62518293048072 51 44 36
93.5043327103142 14.580577226460694 201.8695960458483 167 175 174
-39.40817201771062 12.415956325623238 51.9971651614995 124 123 112
-37.988573038068836 -0.35154579691527893 65.00253613343432 87 66 48
-57.74150229356544 -1.9394793323846105 130.7941946314614 76 55 41
-15.005965778225136 2.8718849536210684 93.46883180923427 88 77 52
5.560868796638137 0.8943254750692674 125.03654362698583 222 220 216
-124.41006571417083 6.0985639785404 151.2172462164052 155 151 147
1196.9736111298225 -95.72919182540336 1542.4553968186076 144 143 132
1.7863315419869976 8.074850534354908 66.046040049777 156 157 152
-62.92882106130817 -21.439538959649422 148.71312890481113 131 119 92
-3.215308703445678 7.430460696941369 65.42231602203917 103 112 106
110.2739298107828 10.456654400916086 219.75053482572807 128 123 118
72.98399311325947 -30.53749775599654 222.98290771836722 220 212 186
286.25962536670227 -51.35183902588151 432.7100336771457 123 112 82
309.48986210555546 -28.973998971185143 585.4929093224736 158 157 144
208.0496277774534 -75.65166300189715 392.52967090066295 117 110 82
450.0413687474618 -54.89229075378851 587.651076318821 143 137 116
-86.88431813595028 5.713039019955513 133.69477248735998 63 55 50
-35.218834789655226 -5.916786852623214 66.38460194611893 51 44 32
-92.47165914568953 -0.5314744427334205 121.20203278888823 54 44 41
-245.35024600044775 19.567856756344195 304.01135571718015 79 74 73
-3141.5823875504316 448.30717149704947 2976.034721955114 76 72 68
472.7586238772784 -56.390372214650164 657.0804561282218 153 155 141
186.74277765152263 -80.94821218000182 367.9328325134961 217 203 171
-34.9419553580138 -0.1640221690361738 65.68591191447905 49 40 35
390.94127960918945 542.218907727933 1119.1657914188916 56 60 58
-27.21988567281504 -16.663778931848967 70.79125421208849 60 52 40
129.98681315441513 0.9544689432096111 242.11841158494371 85 77 65
-33.91009753156247 0.26454271559514975 65.6761193187613 50 41 38
-38.860890005101744 -3.0017365217092093 64.76546755377278 90 65 38
-32.14192582078803 -16.272437767815397 69.56520734253915 84 77 67
-37.16664482935425 -0.6302888872160166 64.67005746683316 78 59 38
2770.1287471663272 2785.379894928427 4878.1896232923955 151 160 148
80.22466786189268 -25.083871178523182 232.8777582283763 218 213 183
-31.814709981246466 -15.6036331261152 69.77870970603595 64 54 47
-36.94644621180839 1.1018047416848535 65.33457826777175 73 52 30
-37.31564159901581 -2.496611147350841 65.23955284499799 78 49 29
-39.28586480757799 1.3603141170521342 64.5137564095213 78 57 36
-29.950479897694045 -16.02452928861495 69.28702685349852 78 66 52
-50.51498094420313 12.700937134204427 54.90010918155849 93 90 84
-33.946258227798424 -16.356073866598518 68.74153892729255 74 60 51
-38.36714915619634 -4.299221226716435 65.05312125464286 165 158 150
-156.81155515698583 -36.694502337300015 367.50493564676736 194 188 171
-230.75590000135568 31.563016120651657 271.95336159256465 93 93 93
-79.95050176073768 -11.102946719344665 164.92072464704626 204 191 180
-173.4196160184165 5.3803047735777865 220.52059447124321 147 143 139
95.08465755657966 -37.19664590978017 301.50880919783475 150 146 129
-137.84400729403364 -37.45782813453688 314.39677971157073 178 174 158
-81.39631049099006 -20.905333152739985 190.2092751044127 59 54 33
102.23068369444711 -34.47539235435248 216.5648256672846 117 109 86
262.65076376072466 -19.198860982317555 464.25446898224806 116 117 104
188.6189167615377 -75.26990386054628 522.7721985535542 197 194 174
146.9540874439588 -36.600292570785946 274.9908607024421 214 214 180
60.5214658398836 -14.286312952599175 218.9720586623465 206 204 187
159.4781609787115 12.085422303521783 276.44689556086985 122 119 113
-1163.408858739888 148.30158120449775 1121.8920695042375 104 99 98
387.77193809650436 -57.46281041955135 569.1690451817879 168 168 146
-23.58871424922614 -15.493347009694782 71.65084844728051 113 95 63
120.48759391015047 -22.938568962684787 289.6590572886145 170 168 148
127.99354570380845 -62.71695506104487 369.1306819241837 120 116 92
-15.59316417358208 11.136842772766824 92.18158416389112 78 75 73
-850.2147868192069 101.83377473983626 736.3472678685426 103 97 93
-70.40491429741822 -17.520295038062557 158.0377540258057 171 169 147
-92.62399320709073 -12.043424425091317 172.53481352168748 235 228 205
85.46671500667075 -21.43706626728297 243.46714494029823 210 207 187
528.2725675671651 -66.68914427919755 597.6203563874818 130 126 106
124.2262488966816 -68.84070407896193 411.41602527456985 216 210 184
336.9879488404389 376.97455833264473 747.2774877273403 122 126 126
378.50688488769055 337.84485776771913 660.8086441078497 80 91 82
152.1211086274901 -63.649201394378345 326.8358259587059 210 199 170
-37.17597355477089 10.435200672502905 65.80214332844372 83 97 101
32.19824226864679 -10.027813294374845 201.3259890714464 107 100 97
-32.79904491901848 -15.772023597603381 69.69814488749724 46 40 30
-49.65011850574711 12.378385526600072 49.385154410470456 52 46 30
325.31340782522244 -50.26849001498764 449.8107266803098 197 194 167
-24.639909785688413 -17.92893292508485 72.2365806504906 89 78 67
-96.28092282690442 8.880585340500696 124.47475144456307 61 59 54
-37.65686116505892 -1.964243904088091 64.9431050433013 94 65 38
1.9346620720198997 8.93463221872147 92.71458067697382 149 150 145
-60.8893690142423 14.515807812154035 63.27087367906299 97 97 95
-129.69042615267588 22.807141739879224 155.86007182630337 98 105 103
-54.400436874788994 14.33455699077599 85.7480135051402 65 91 94
-39.38310527427717 -0.45481373643342526 64.29113012274873 70 49 28
3.390476554791113 7.7418743296971 92.99483814359286 76 74 70
-34.14030273827055 -3.2929271681014827 65.62831384239297 52 44 39
-38.00292423726681 -0.8398467148814625 64.95767753046836 89 73 51
-61.63796422354415 14.382028821310394 62.359096394201124 87 89 83
-242.47275489876742 23.687215523615656 286.6846945367387 57 54 55
2.553481997311637 0.8439214996990226 122.3145196984334 199 200 195
-97.36079804586296 -16.934047661590512 123.63248978220254 67 52 21
-294.6640327551602 -219.26388284927214 735.1787754228066 209 189 155
209.58415219799102 -44.55895031710773 390.1244509520985 136 131 116
-87.44014815358126 -20.233444626153226 186.63073587451575 107 103 91
-141.75786092218846 -16.979890187841377 167.1318146603123 232 225 198
593.3841946028942 -32.881914809697214 757.9176162603616 102 97 89
-84.53936305138608 -23.620702660158948 193.5576124486165 100 95 67
-115.78397334186334 -37.259738492669804 251.65352802316042 205 198 179
-90.54664223810101 -30.700619661279482 201.53634168111603 114 107 87
424.0260526373083 -46.02570214000968 548.5107075590862 179 175 153
594.5236554523677 -63.29742455099695 671.465309240512 179 174 159
621.4541585777017 -74.49606155817023 720.125406614682 171 172 154
557.7889780570378 -79.31448825949543 665.2543693630066 153 147 125
510.50727253618766 -37.75035082380275 642.3037962107018 190 189 173
-2.633716238826335 7.832812035967835 65.50214290405702 86 91 89
496.0412279181363 -74.47669299425817 583.453575520732 169 164 136
-72.1929937359081 -27.945486691408316 189.02865470510304 179 165 139
89.49469623859062 -50.62614586531502 339.027015758267 225 222 198
-80.6876370706681 -25.403174030999928 166.48498383000023 146 139 125
-67.71388190548521 -29.60385455767536 177.0618290374565 215 202 172
167.83026043413255 -59.89339987372013 322.5136360036917 164 158 123
-59.33936243171003 -1.7038842747490628 94.99549967664355 164 164 136
-75.67108539836273 -33.44381704220641 193.75271069314198 223 210 174
442.4709768779012 -44.83880095771408 526.5853486248632 132 125 102
76.09035287615622 4.327985873317406 163.51816151591638 126 119 107
362.0952394851534 -54.16222370141261 503.1857894890258 139 135 113
193.4982357370652 17.966055604044865 310.0951118895752 58 58 49
-36.79649482873945 -3.6822900871298208 65.13819219079687 77 63 48
521.6776030967911 -58.861435174360814 561.1513710878384 116 109 87
-33.15767650741206 8.9147542017432 65.65415831201629 64 73 72
-3106.838689331714 450.59415897309606 2867.805150779175 66 63 62
242.44255787102327 1.8524743905007823 347.35196146077243 77 74 68
-33.74144907786899 8.870585481489993 65.38917818954111 59 72 73
-14.338903729101581 11.144658068033573 92.32093685471443 60 58 56
-57.53770241314257 13.703306483792955 60.92453437965622 93 97 92
-68.29623291678747 14.67555415877839 72.02018279679746 86 89 83
-44.66310894126279 12.512505831046848 54.81612402518023 153 149 139
-82.26008789239059 -37.7679407179787 189.8148042719589 225 206 166
-61.25427776710393 15.208952235273243 68.38464198679279 116 120 115
-180.2157845114927 23.775236681100456 157.3690501573189 129 129 120
-202.93660637706225 26.29864642146819 180.17671016636814 125 118 115
74.93154625889407 -25.173991131351297 296.9540844517537 182 181 170
336.55447656265017 -30.279544149620204 483.51954717151636 188 183 170
678.5911116444738 -41.5070700483182 782.014616771305 126 119 111
-133.93676433353085 19.865597878929048 166.42338028187086 89 89 89
585.6534339434199 -42.69862817820013 674.4788609042893 152 147 139
331.73562578308514 -15.712432324982156 430.9855818014893 124 122 112
266.1854675475386 -113.12735221125277 668.30138329376 144 140 114
280.42123345296613 -4.514019072566703 374.59719795933347 93 88 80
-76.24138854665442 -23.83072088460399 185.00158703554797 205 203 180
966.6821594357513 -127.06535919170774 1114.8488557809533 123 119 102
200.2476992160606 -55.990242349141695 361.21470179944845 207 201 175
-34.49578934298434 -1.9376014000000785 65.60740146822208 53 45 40
220.71521078746792 3.161690335332072 311.0070485665532 72 69 63
-35.17388785511763 -1.8570222400640908 65.46956156144982 50 48 39
361.30762171832765 -45.17513890483246 417.0028402933709 167 160 137
86.60262881685473 13.236061388122177 165.7053361129664 48 58 56
-34.92863448972381 11.751834200170297 56.09861364477658 100 105 103
609.9745555877445 -29.476234620871626 719.993553499524 107 99 93
-33.02423496143626 -3.9623468967590205 66.05406725515687 62 52 40
-38.48947523168455 -0.8527286098319782 64.92471427171226 93 74 53
-32.069974072310096 1.298921828793027 66.29171963534162 54 51 76
-34.96153033017851 -5.026408731296677 65.86494731014845 72 64 54
624.1568469510412 250.6891488006976 629.7109298779803 65 74 73
-188.29044934395438 34.22975140013795 194.86142626095202 97 94 93
-44.1629836580582 12.594378248596222 55.39025118798999 140 136 126
-37.4422673833716 4.752310767763102 63.280413966918246 73 63 48
-99.09135169989874 -22.287315713063112 122.51418152648228 135 118 90
64.36742969870863 -5.506453063870812 231.81072796445991 88 86 81
-17.59262752673033 11.359035759096875 87.60208389125326 130 138 139
-35.91086749266734 -4.177598417188475 65.33261967621326 111 90 55
-4.173155252060166 9.888030034818856 90.85695209555776 115 114 108
3.4191465396478264 8.512140106079414 92.5648001337167 197 202 199
-283.9361359534363 1.061752054142086 353.1140724888499 97 95 87
-367.47019281032175 37.081655256441834 356.95717568860766 175 172 157
-70.1885390824962 -19.377942239070613 183.94151141224887 169 161 139
-68.02703078999167 -21.312194452988464 172.42891260368168 162 152 132
97.97678690281745 -32.32514559097622 210.2873811738581 229 220 192
-200.34140844866144 11.379748984306435 209.08746866696396 117 115 106
-57.66581618719555 -22.42087083275735 148.54646146039718 80 80 67
110.43677310519931 -29.735012441300974 314.5686749746166 225 224 206
105.73073632464421 -18.98790343222497 289.3656070065677 192 191 174
176.3988306356587 -64.54854765890381 347.2896194563256 156 148 122
-228.35606944690127 11.523822775081124 261.18142924532754 138 137 139
-81.01141103122242 -28.40392696225551 183.04315501426734 110 108 86
-247.41354617558548 35.34834384038916 239.06749908289376 85 80 81
-33.77579148639333 -2.7964136311565766 65.89802713871606 48 43 35
75.6750954416434 -35.319909167737386 232.02693422331512 184 173 148
-13.481486098352514 -24.284563558043438 105.55806538623867 89 72 42
-58.563952993003255 -25.536436673642527 153.16567032619687 198 184 147
-34.547737574018505 0.2257931169226402 65.4630986065967 79 73 68
-896.2841587620193 22.77340657105518 975.2340248824208 142 141 129
-39.94181587133369 11.949170017876888 55.83552916144205 96 88 78
116.51394812660676 -31.33843376793072 241.11597620695287 201 194 167
-54.28190375604744 12.885202853692192 56.0299196405251 96 96 86
-39.54956464512331 -2.3983666620039825 64.83348270665996 78 54 34
-93.20034626994209 19.315965168272577 109.70699724685208 88 93 91
-51.25487889001496 14.349825473918639 85.08170410268818 91 109 119
1.2342566151794807 11.37715015116182 92.38429344368215 130 138 135
-145.1362606734577 23.98556469130443 130.80940575370556 113 114 109
-58.91648226267323 -0.8207248812458209 129.82106110589828 80 60 46
-51.472104037238196 12.954770901409258 59.09507457558414 103 104 98
-48.81444044696462 12.762207376948986 56.81922836315515 108 111 109
-39.69907526422051 -1.3960084769542769 64.49272144244524 209 196 169
375.39348699715003 -18.422211074903505 492.16016908110737 125 119 108
-82.90382832632814 -23.67993210230257 182.74270686827705 91 85 58
-42.285458901625894 12.121398908374 57.766068901479414 100 100 98
-74.3761470542165 -17.872309074550554 176.86673993638473 222 218 194
-100.46784180977525 6.161607072123875 148.3741746851239 82 74 66
-35.30862026975988 -3.1416987647804753 65.3995072356575 51 41 32
-88.71760399031865 4.270071939699344 123.0491596316691 44 38 28
-35.932811977672934 1.676417034339398 64.92731879094669 56 47 67
-34.374835060729836 1.6704327419246388 62.94732052551793 74 70 83
-9.141451095523003 4.397801015328117 89.50442969950056 52 46 41
-57.63027762667952 -19.58521722049436 155.4793120897258 99 87 65
-57.31053580914435 -25.902082216500833 159.58880854952338 108 97 77
-55.17277149103406 -17.507677586298566 154.29100477615015 237 226 201
221.05163942011998 1.1312871545072025 306.17864999393555 143 138 130
59.00771933607258 -27.783366205627782 229.54950213193555 199 193 176
168.0722482980911 -13.78855546353345 352.4847200900455 109 108 96
501.5310173681883 -27.409440360128087 546.1728242961648 60 64 54
238.27365609925033 1.1563821290171292 303.361544760458 107 104 98
140.92397073313828 12.5579486581635 265.2425383783781 115 108 105
290.90791389386743 -50.16262870247479 487.6482888674577 134 128 116
-82.76253585590227 -29.516078724496683 200.0532140430801 224 218 195
-445.1020678761827 27.494986897534986 465.9857893114083 136 134 125
390.81604781852565 -31.872594705102536 498.82133570132453 159 158 146
781.3996186540595 -81.14238170460472 919.3804502552325 162 158 142
137.1953040762743 4.242964196801899 237.60464154784432 136 128 116
726.4239242086087 -43.94335775874247 785.4976744178497 116 113 106
105.09954745742486 -53.21866247557146 294.341120042489 200 189 154
-58.078183841055214 13.153420263571837 58.42751124813461 71 71 67
464.8424888432331 -32.21389977567416 521.6016090803571 135 130 122
-79.97546544878817 -30.506640197296242 189.23273522104083 188 181 154
-86.61047263550252 -1.1035892476691664 122.7627868386 89 82 74
356.2292995526292 -53.103894589909025 460.8368858156016 192 183 159
-442.9753889015559 53.25019805687516 508.2448301387324 82 72 67
-455.4536627060672 70.51487018583215 524.1727765584615 64 57 54
233.72107567464928 14.55835061458194 323.4494126970531 98 98 89
-38.46088437925928 12.049032141606531 63.03480225254192 143 146 144
-86.2545770619826 3.243550826432193 121.10245094179811 93 85 77
429.67363421138776 -84.77994365437966 582.927483472506 228 216 189
-38.82114571342724 -4.262641400009312 64.83604912612613 166 145 127
-257.09058484689535 30.364452300830383 246.91958993552387 132 124 122
-62.47085630989599 -44.018251158235294 199.98181532578104 176 156 130
-40.28148651805345 -3.9943059198682525 64.50544768506663 98 83 59
449.2156160986521 -25.894307837916394 481.1912576725515 180 181 172
-85.14654417836708 -23.32159689131669 193.65736064410947 135 128 100
-60.50000344432704 -40.3832302027713 196.0615198947113 130 114 85
-59.152389969738245 -34.07151830769638 187.24176242875095 117 105 80
62.206876415531816 -9.080428585924006 208.16199486508535 152 151 131
553.0256785162998 -56.442329077783576 641.7181463783426 199 192 171
-28.4264649059028 7.1738467290599965 68.73619717184864 81 77 73
258.14518077417057 -36.54953975809906 425.5903934074228 165 162 147
84.37017980919352 -20.459326221058323 311.2582380014285 139 136 130
-90.48544842115929 6.5774839304874035 137.96818616317276 114 106 101
-75.81277644767232 -25.346998064038203 197.21156507080224 201 198 173
583.5875964282249 -54.75414867404564 607.8548436122148 159 160 142
350.8001521619772 -53.80123630700717 469.5436291801294 215 209 183
508.6379490957763 -57.952142275418595 762.5898898314617 136 135 124
172.92679553667247 -66.76600917480515 338.6336391958029 140 128 101
220.72113575995652 -16.017562340076605 374.24183596419806 100 93 90
498.00293041229116 -39.69206372269953 522.673745061838 115 111 94
148.1984873942776 0.6514753617102496 266.7594144954101 84 73 62
-34.61334282678024 -6.2165980816605355 67.27606152362426 65 57 45
-27.935601680052017 9.961051806739148 69.50592541691479 77 86 92
238.20839715901838 0.827657160442932 307.7384973220585 219 223 212
-33.64647622227807 -4.481495686024075 66.46425425567458 54 48 43
-39.34315013797818 -2.9514794250840435 64.58240336123868 102 78 53
-32.98092305401173 -3.477960985693032 66.07139895025401 74 66 38
-42.96640562409638 12.70622436336449 56.73177719098391 67 66 60
-41.90464389324799 12.342457492175713 58.399867726598885 125 123 119
-90.100542386195 -18.173395730671654 209.161594455062 183 179 157
-93.67051297629256 -4.30419584958205 122.21673585532628 233 227 209
-32.77478151728628 -1.1516089359075659 65.86270902585119 90 80 47
157.35825540021185 -29.38411121108631 332.62984082087786 199 193 181
-28.52489875895504 5.502127226712207 68.77222915972425 141 136 123
-26.33669457658713 8.770286993669432 89.54845201116433 132 130 126
69.85038320469164 -13.033899635119454 215.54551191015472 203 201 184
-1005.9169707510985 -49.301251390569924 1268.1001371787584 174 170 148
-106.37954668317707 -20.7373664116296 215.53846215027883 170 163 147
-32.906742706490604 -1.7622542338721048 65.79955150258559 63 50 32
870.5936630247684 -36.1697044160003 973.9299203909884 66 67 62
-40.3046059417441 -3.345654353035723 64.42816380166667 92 73 47
-37.26928129609918 8.767739342827111 64.49155197925211 65 73 74
227.9226915319717 9.682272228748436 320.09604736754295 117 120 111
-1057.8667059928102 81.23066371653181 927.1734278619331 136 134 129
-54.810443837548924 -15.747776657238617 137.86037802352473 103 91 69
-37.41089053370112 -8.05378287468749e-05 64.8345878350412 97 73 55
421.8364778866239 -55.36421251852758 566.027811703412 180 175 151
-63.810593927575084 3.492522912105366 131.80626996384194 77 61 51
-57.9630283383293 13.233653226076417 59.2563770689636 99 100 95
-63.538220299867724 13.949623854164864 62.69204511003159 112 112 110
-68.7076599084456 14.33187971077056 67.02901924906058 108 111 109
-61.596445435506645 15.642257891660199 90.00203047899633 43 56 59
-128.61765784749423 -25.49787724515614 163.39943711178134 102 94 82
-1138.6525755879363 48.876243444275765 1248.2331965012302 175 173 165
-34.724110820905246 -4.457607345887986 65.77186020033032 152 146 134
-34.06742635317424 -0.9833604161541141 65.75213545588204 127 123 113
-319.4401384134884 9.018556554490901 403.0729048504014 89 90 83
-38.39971365888972 12.95966693899389 99.63796956674405 83 84 79
1499.6364802147532 1517.4656554432393 2957.8705937380864 138 143 143
-33.422610018127806 -0.09125965075330023 65.70951944412224 47 41 31
-34.133845509315286 -2.193768035147339 65.60721278489719 56 58 37
2.880131681592409 4.243337397707951 93.28779753948308 90 82 72
-791.0946719829415 45.50877378876022 877.2639503224477 69 64 65
-93.55373804307725 14.190560943430283 141.25892058779863 66 60 55
-204.30984041131282 34.44434867624258 249.092874714319 89 84 83
-148.1634207464025 -42.35554577771506 354.730160258284 171 163 153
-234.45667769473974 -6.560051416778726 276.93794830471245 147 142 122
-416.67869506919203 -115.86428265171784 1099.05336139571 202 197 177
-9.107565388028442 -23.515345386082853 103.62192069375138 126 109 77
-93.405542700204 -19.913590997810747 207.74665450003945 206 200 188
235.30546098256053 -28.309904891428367 420.5134159541096 192 190 180
58.78814309150871 -20.7489459632525 202.23866517355845 128 122 106
-217.15362062418876 -17.854148315384336 260.29164834525204 134 127 104
71.9998697106299 -31.232412861647404 229.25386839752778 217 209 183
-93.42401390034891 -32.293741813638185 195.45600907398537 211 200 175
312.37495300026916 -29.016759279691442 374.58754913091116 158 158 149
-91.90998473460833 5.9687032517892105 124.32060062310278 33 28 20
304.5524645556101 -40.89122204859574 440.72256416585515 184 180 157
1417.9732501868755 -200.658717236516 1544.0770465847406 146 138 116
130.24897282409944 -51.099363669004816 293.955903968335 199 190 163
-56.86080697755243 -30.007988273448845 207.18844829831588 209 199 168
-35.82612529587695 -3.7474106595638843 65.35775037439257 65 51 24
-273.23153020411155 23.7400960053348 335.0759603482599 36 28 24
-34.91330513372143 0.9435689935810099 65.13368684094739 51 45 40
319.8094855684387 -50.13185561250819 462.9914824852844 139 137 115
184.1831248301697 -58.05729999676199 342.8106003614672 185 171 145
-75.00962460727342 -37.398272320837016 200.03209740997937 214 194 157
-62.80658940223482 1.5296335222215736 132.98770014837405 80 63 49
-110.11944518978979 -15.757383668406947 197.29144449710532 200 192 166
615.9001447969807 -68.9152284741667 728.6786541687736 116 110 92
-33.87457735312578 -0.4777160807600875 66.02686721046625 60 54 49
-44.798160524917115 12.937329406919238 56.61776580839707 76 73 65
-39.39613581360838 -5.549208238165261 64.88461517178025 111 77 49
-354.62096977800246 40.71758025342788 312.2604441187695 60 54 58
-44.98914994539847 12.215380191805265 54.906415326923764 82 78 68
-60.697731477294674 13.856725282671645 61.58234261406379 100 102 95
-13.05708123125032 -23.47740544792415 103.35165381002531 192 182 163
426.3232249474178 -22.11652754108088 557.3753166529193 192 185 178
-340.4757258779057 21.097927162885256 327.4724631473752 139 134 119
312.21214411524056 -21.523905989086558 368.209188387137 190 183 175
-109.55035712226554 -23.588281486861167 197.79870519626755 183 173 146
-327.880302616467 11.290245001916286 387.98738170084096 71 70 57
476.9760576844345 -40.161457143542044 565.3625921961709 139 131 119
258.13312386297434 -11.166717941798987 357.11028798584925 82 83 72
-35.03607201366799 -0.0027266561952244248 64.94313536144982 40 35 24
-20.16305615418374 10.789011168873234 79.42209794242555 118 138 145
-42.288269232744106 12.881004355242831 57.144041845266365 92 92 82
-203.51402895666075 22.134029631075634 239.0627851756943 74 71 88
-109.74177623653591 4.854785024890303 141.70129890919523 153 151 141
201.9041455627065 4.527414034481208 297.8045324612441 184 186 179
394.11972473024355 -61.32150511330773 530.3338035700599 178 174 150
143.78565078969075 -60.75357793819 307.59061552352887 199 188 161
-66.74259008399737 14.809082594375797 73.20660677686327 97 98 93
-90.06693961615932 2.9759752889423225 120.66691753002193 66 57 49
1788.8297298409082 2258.829961897871 3874.6563091604608 171 180 168
-68.49292809597262 14.468593493854039 69.90502070433298 85 85 83
-93.83082965483759 18.900212115480603 117.55735728061975 87 95 94
-85.95250714565381 11.207346949250601 128.23854758715274 57 52 44
-75.97391403626537 -1.8672066796661464 128.55338186843588 83 72 55
-89.78622438627784 13.065391633212252 120.69720305057652 67 59 54
-52.00018636051357 6.254095872383139 130.36302685722208 83 69 47
-27.248051561154316 11.106847490971663 103.17501149135137 68 65 58
-13.797626110417985 -20.538044825241272 98.67841935394199 240 228 205
-1360.2698464645646 61.08679442413425 1625.5050415686387 175 174 168
-99.2962924951252 -20.486377045854763 120.94848699617172 252 232 201
-91.50707714977193 -27.671960505394782 197.20697381760252 185 182 162
-76.3912374899615 -22.597096294851575 196.31547549048827 222 208 184
-141.52535310274862 -19.112710911835496 176.6784560800267 216 205 180
-91.86509754324186 -21.737504341815995 212.36162809736396 141 139 122
-562.3952804391076 -137.83135791336068 1390.0934144816922 200 198 174
-384.79093070807227 69.08328976830039 351.66416393918246 82 81 77
390.7228777598407 -42.320231972098924 593.6874027466189 121 120 111
-110.49234321023991 -15.555649519983433 208.737225137661 192 190 168
378.97251218235897 -47.25100807787332 444.62596676394804 115 113 96
205.12229354676933 -100.17385095394489 464.70301127529314 236 222 186
-37.49801202726149 -2.9017592228920854 65.01628328842189 82 63 39
-43.73786917156291 12.490167472038639 55.47783947587894 134 133 122
-68.06326845719299 14.81525619194289 70.33346555307901 99 98 90
-85.03251966791656 -39.23230876625357 197.81810300015556 239 219 182
3953.4052380813782 4556.750033459722 7398.104493389645 181 193 192
-69.58058564029047 15.544126901265605 81.89213107195435 86 89 87
-207.44413879270212 26.010535191166586 244.0160310427249 50 47 77
-59.09275273493676 3.397484661152278 130.40362297182386 85 68 55
-66.87794617553149 14.772050841683331 74.80011240271212 108 112 110
-56.36201493442016 14.298917658259342 70.07777886138632 100 105 103
-59.05247851236639 0.9227149738651911 130.09960923801097 84 67 54
-96.04807967653262 -27.794635883439337 176.67025273690942 212 200 168
-108.92060368743996 -21.04497930698088 133.91804723314664 73 51 25
-35.52046352293845 -0.5020770654306278 64.84065695262966 80 71 55
-32.99122992728519 1.1642956090658763 65.53497716116257 67 59 41
-2998.6523613266836 334.39195149139647 2792.922858675415 90 85 84
-2.375682940607931 7.347288825104666 104.68665236265916 83 81 77
-19.18149376954425 10.4933693306907 77.69744923119434 106 129 131
-59.89884451369295 -24.223123466969312 157.40440480770826 124 115 96
-30.230129797428567 5.695747444213484 69.23059503711004 182 172 158
-62.07119312884391 -53.232838020032084 202.63192745104337 93 78 65
-34.6959479289709 -4.5025535921422035 65.74201932868749 147 141 129
-85.54809749574343 -27.51563765042358 209.14579122216531 232 229 209
529.8730404527142 -31.357547238791362 592.8309813862721 163 163 154
-144.09218721063544 -17.856803164902487 185.81692705897564 98 90 64
-574.9798147779442 -330.2828344872879 1530.461397209184 127 118 95
-63.84330496703802 -22.387735280888116 154.00040998213905 151 138 113
541.7272607208843 -93.29058892347282 776.3507673771809 167 165 141
60.91718982046853 -13.242032713374265 204.5324939766249 227 221 203
-92.5004176755608 -35.807742112164455 197.49919491391086 167 157 122
-83.57571158279384 -25.324698876570032 211.2536321282025 228 223 201
-40.93562104674437 -17.140817621473705 133.1019121870302 183 169 135
168.78490923436897 -29.427357980090918 320.60265915013895 126 122 110
-20.958599454255197 8.967682046505494 76.85213152033322 135 133 129
-39.11217003388037 13.70222347770281 100.11378164548971 36 52 52
246.00721173925555 -42.15668369106275 335.5310240477459 211 199 166
-37.11086232351295 -3.104010714972355 64.97189696398233 115 87 58
-93.56415160818794 3.3345481514663664 122.85954861321947 87 79 69
409.68515552663985 -33.03400084519843 473.17126604141833 133 129 118
-33.999664291420494 -3.9413356775507102 64.90314605380775 39 32 26
282.62684258898 9.908706533096902 381.80147515713503 88 88 79
-54.06376106762019 13.037446626433669 60.003721989462875 102 106 101
-172.52798633372066 25.989798936729592 180.1818926432291 39 37 33
-65.01906963418222 -52.119071896690144 200.8340236123232 236 222 197
-278.0923286404209 -79.26048876208368 741.1633251921065 220 212 193
-34.56370668052697 -0.7434472236694653 65.0772516088031 138 132 122
-88.5176928138088 -37.15479033903953 212.62694104130168 115 108 80
-67.75866408919458 -50.42185756771018 200.4276696700498 177 156 121
575.7146355155022 -52.460342512138396 744.6533297905904 140 131 123
234.1951484060025 -40.92735375547794 378.9650484439371 180 173 153
598.7782881678623 -51.12677279400034 632.2257217503708 167 162 147
-87.37407274519391 -36.14823476483284 200.571101491451 216 206 174
337.0066609232465 -39.48854205843873 474.30654164144414 201 196 175
-35.492120525512185 -5.343417890864718 64.9547123597327 80 65 52
-34.78883074083571 -5.652545302890133 65.69585556880692 65 52 41
-37.809570721953236 8.731925007883353 64.20792830154683 78 89 89
-427.5017855919063 -420.9096422201496 1111.3724852592784 225 200 159
-84.24396392618084 -37.16660048605608 199.0098586628043 219 203 166
211.07975245441583 -64.54647335796714 363.21477728350635 198 188 150
-64.76155038059997 14.396996645576085 69.10463024124171 82 84 79
-61.47444060584507 13.756285862663242 61.34378182319927 101 102 97
1.6034098728603445 10.312119691388 93.39442222823786 185 189 176
-104.19946574846011 617.6896123942604 4819.28459675295 74 76 78
101.62252126079709 -50.32663602494441 255.00238573323816 215 202 167
-45.57738952987016 12.396911157948391 56.30642452854036 151 157 150
200.4494713791928 -69.04925778896065 353.3352747134715 212 200 167
-13.266560356841202 4.500451177682753 90.10793275405463 126 121 113
97.83874288599343 -28.596491182864877 209.34135259548788 175 161 134
-94.03776931389397 -14.899505543348832 202.01475161394802 164 155 139
-33.36493568241445 -17.669311624129584 135.37460179876044 226 204 170
-107.91261145859633 -33.77088430937608 231.12876142161238 203 198 178
692.8238154342731 -51.534869907386685 766.0334247108193 185 180 170
-89.64420870527644 -22.580485638795132 190.35833958130877 166 164 142
649.4531923903915 -130.57475161956253 935.1813197844313 186 182 160
-90.35695078746862 -34.41471010228168 214.27880727777017 181 173 150
291.89848301375133 -94.77158758359865 495.26896654810247 179 168 138
720.1858146711899 -75.17299690366595 739.6558871745033 130 126 108
-23.67497106868484 7.685599957442013 86.73782522904798 86 81 73
-45.23813815215925 12.867549657003392 74.72074079372334 70 106 114
-22.692927045203792 12.732507768227752 99.67662018278412 67 68 63
-193.97957251213006 4.4177433517405165 267.18246311476315 159 156 150
-459.65804055474666 -322.39516968020547 1269.487762947434 220 209 176
122.2929241504055 -32.41325281479505 244.9685413583555 191 186 154
285.3596635279384 -57.237996532536535 416.0162453988602 227 218 191
-466.8283456502217 55.018494730798686 493.2612328154697 80 75 60
-65.52711583311448 3.0777402376445817 130.3886894593529 75 58 42
-37.1650623479458 -4.527473382550875 65.03872585264794 101 78 45
-31.850363486885666 -14.27810089336662 133.9624745501199 191 182 169
-97.52142954045634 -21.854202101025834 211.97291508617064 132 126 116
531.2833297282639 -22.887530046497062 605.9887178142948 65 64 58
413.2264179792538 -24.377508696654644 496.8932874067155 111 106 98
-35.44150573213527 1.4909242631670856 64.56974730147293 104 102 85
-29.93146727297201 9.59613179824614 71.72738464779815 107 129 133
373.5147525126825 -33.5545730859419 547.2004180152165 151 146 138
-25.72866312338559 7.98526630002731 89.65273449057 88 86 80
-1629.9858797215309 206.3949956232253 1541.5624879450763 48 44 43
-91.16038766812153 4.80665651257364 121.74558968027198 40 36 26
-2521.0362749410847 176.12546106671894 2578.912476151447 151 150 137
318.73094975881173 -47.67686606145335 424.87392063019036 169 161 142
-110.32442622660818 -21.859030626627874 203.14056105559757 217 209 187
-65.41408219300274 2.0918855339949447 125.98912505587349 62 47 29
-66.70969882991973 0.2641902565583166 130.27009984589924 94 77 59
-67.34359335196422 0.2205799692664503 139.80948096748975 74 59 41
-60.679325574194465 3.364110458208455 131.76842807934116 91 73 58
-63.292270958159854 13.829785435123851 62.36496885535052 110 110 108
-54.92117952974775 13.271262967442487 61.53883148325112 109 114 107
393.4160634221474 -72.47978823369708 511.5700960130742 212 199 164
-57.33390668094468 4.8339227624562735 129.9556550272043 65 53 35
-485.94376935533757 29.365846849953893 500.84773756341707 37 40 17
-2614.5754017078984 -1268.9211765929615 7693.454300977804 191 183 171
-31.99758116190793 -19.43020932139677 135.57846306510814 99 79 51
-158.5446692878931 -59.21974576420762 363.8865890207104 179 171 152
-7184.746947060495 -7060.974347049163 39886.17943151162 127 115 93
-22.87081813505388 6.151099646891782 89.80887467288079 133 124 108
150.40934054651467 -40.91759375777387 265.9940402829159 185 174 139
-55.811635001234514 -22.369669944450216 152.96981832722014 164 154 127
-24.314869698529147 10.765879528254882 92.41981158422895 88 85 79
301.5427698520403 -39.602712868450304 464.43636379124524 175 174 154
-56.52324945284328 -24.194539786606 170.5705189641481 241 232 201
-401.0269966082157 30.034554278213164 472.2877449133015 65 58 55
-954.2719998871004 -988.0854139834627 2639.833851631889 148 126 89
2104.188535725144 -205.45699048026123 2407.5912419018323 146 144 126
280.9199469583619 -31.106361146165067 442.61974481973164 109 105 94
107.23350563537504 3.309010737467704 189.21953636852464 227 228 223
-21.233167563770746 11.900046251370288 103.49361628349972 84 82 77
-60.63505161819284 -5.33527566258544 112.04357650531392 233 224 199
-23.963706672328993 6.316938813128631 90.2261796600202 130 128 119
-64.7157015235581 -20.61170112461388 163.16418774254953 116 108 87
-113.61464027957147 -36.02836015065404 220.50304024939533 199 186 155
-71.9498659936849 14.90189216751096 73.59827280011596 98 100 98
-61.86209205002715 -23.296575725001794 153.6501332284923 100 81 57
-400.05256472143685 51.12218180238142 355.08753749061344 193 189 185
-19.272968485663085 -26.016622486762643 190.7940734680049 252 249 220
-287.51486364722155 -103.52014901666301 728.7467151659399 184 180 163
-73.63861499144129 -26.829319288480143 199.94400664349996 212 205 184
-366.2899195206427 0.2563353500084873 433.11490252896846 116 117 99
-40.16527555752061 -5.472372460459731 64.036420825934 122 90 41
-37.01625342562023 1.3064303959880192 64.68153549497663 143 120 87
224.47762499041056 -18.607670504691725 315.12344269702356 187 181 169
160.21223384650918 -13.677615960575231 246.49948610151853 142 135 120
-102.70929970462794 -23.07884083032596 196.80614572278995 108 101 85
-39.964541335821565 -4.069225926817544 64.062284698742 131 107 68
-72.74638016113828 -32.229647471030866 194.90524073825102 200 185 159
504.5082013355509 -60.06687969933376 542.7972791668594 148 144 122
870.8713568719361 1919.604920517688 3846.0805117282957 53 52 46
-79.98327450488227 6.375154369259861 108.22485727223412 79 71 61
-35.648168824184864 -1.1289764436525163 64.77690069440531 79 70 48
-37.00691699435665 -3.610250198966367 64.80529692353524 65 54 57
-57.46210314712428 13.60426618287991 65.49659580153346 145 149 144
-75.37395952144097 16.793684413644634 90.07228260727058 122 126 124
-31.283933554476917 -1.775226080703031 68.028029950266 142 134 122
-40.25197484184637 -3.6420012313356436 64.02538860728946 120 118 82
-36.014536640986584 -5.822423183965723 65.18409155340598 139 120 87
-1.9323140559328598 8.592383957736878 88.21530132548338 121 125 121
-3.5344603283126284 10.208239266525021 89.81684812858319 78 79 70
-143.56970621825434 -9.709548713886099 178.75290643757188 50 43 27
-97.67761780477326 -12.439850267683923 124.32565251673667 84 66 37
-100.35807569212149 -15.942295504791456 123.13750224291768 119 109 89
480.5511846247195 565.3998942984929 1077.8104821456716 99 103 97
-22.29297968464757 12.05066749919632 88.96318322191564 133 143 135
-31.4283550186932 -5.828917718865184 68.33475630121113 133 124 107
-39.28675792088166 1.6115525353173146 63.81539049398732 130 112 74
-82.29047672249557 -27.729697972979636 187.5193286803088 219 211 185
-88.21850729343222 -1.8033332548320202 122.72248464429335 63 57 48
-97.24710854224308 -22.97059966238214 205.19713928980462 123 117 105
-94.51309414384566 -25.19183232312478 198.68624267134265 217 216 196
-89.68327833819565 -35.196713788674685 207.59188991230306 174 165 135
-349.4623943385714 18.762319462123102 450.2641360852553 101 96 88
407.1008961016829 178.8442991802509 468.7783057628079 74 82 82
-87.93655551099133 -18.073783910521787 154.2644012948895 195 186 156
-22.768252726068134 6.2012653225737076 86.91845511482012 116 98 67
-109.14206941106295 6.607173541427744 150.58286954475955 60 55 49
-64.33983217326363 -20.877356660825736 156.00044167676518 218 207 182
-55.43954914695161 253.81097790736936 1888.4541259866298 74 78 80
-62.2538424530116 50.30882055377278 369.78530611107277 54 65 68
260.52545531131966 388.77966661804714 828.3746331194629 70 71 66
400.04050760434694 553.6706265407672 993.9970281623165 154 157 143
-64.6122582015931 15.167715370844492 77.05677645793358 119 124 122
436.08976051509404 598.4039994668824 1019.4066153038204 173 184 173
443.2927001784779 537.333980454409 935.1883098493354 168 178 170
-57.15093138973303 14.610986508130692 71.04966769059784 110 120 114
-28.460662963337143 11.269406584645514 94.67666122799376 79 76 70
-91.86317841357277 -18.461111165601487 197.14040173729597 199 195 178
180.28924779197058 -15.723500177868894 284.03900019793247 185 182 167
-62.598836420841415 -13.895472645158488 149.62338026666217 111 99 79
-86.48407544947524 4.806480720648134 119.54764122599306 99 91 81
495.5444623313415 -54.44608438972362 621.6601167554418 151 146 126
-65.7376187132546 14.238179795674137 66.02200823460076 89 89 87
286.8576930570454 338.67745370185014 627.6499335381478 166 175 163
-38.1147454391744 -4.306250677546327 64.74982501169706 199 167 133
-80.52977072668068 -19.17696194497976 152.49285289918075 133 123 100
-100.53447368317583 -30.970136623317714 204.90982964388402 215 210 191
-236.73477084760418 17.17048195618304 303.5249942662263 74 67 64
-66.33358652497475 14.37069732024992 66.30370555305281 85 88 83
874.5207928514728 606.4494437003501 1875.897357478737 136 149 137
-85.19720263944436 11.451701955527538 127.18236129498173 68 57 45
-63.143914904908954 13.914727460589104 66.09680491201436 94 98 93
-78.56150548806657 16.26918869294834 79.04876672593636 117 121 116
-100.92761589604393 13.382010365152425 149.99735612694911 79 70 54
-21.50338172018183 11.330338505894604 85.19293149214451 156 163 160
-39.478006567556406 -0.29875284237320293 63.89693784073151 149 124 83
-89.49422462555063 11.309180711328496 91.53146635501089 75 71 60
-5.342243141532655 10.166100768379586 90.61672416447836 106 108 101
-34.027885889703455 12.62198099434203 100.60402067121008 77 71 68
-76.32385000900629 17.03969345627867 90.00779693746564 113 116 114
-59.49557179282486 14.273203979241863 83.68701418650586 59 75 75
-261.6533616694683 23.136328609749825 337.0331838796915 63 59 59
-53.89867253129379 14.170591919457085 84.75267872563171 115 141 143
-358.0107110331916 53.245528270501254 374.2311336842415 54 50 46
-63.218814127193305 -38.59155982469657 187.93303569897745 234 214 178
-827.8090498372537 -350.4765390058851 2396.0687997272526 178 170 158
-1003.587316607106 27.78836009596487 1306.2478909818985 175 169 164
-12.595103855473385 5.644252965216364 97.02514520851341 225 222 221
-289.0822344492742 -119.91914596896227 730.6234182149127 176 169 155
-15.327907365906206 5.819664643533039 94.62292178794678 250 244 233
-85.29580110409158 -34.7106266996859 198.3623754380663 194 183 153
-25.61368123173753 10.000817262685235 90.60883953761315 104 102 94
156.46132236300892 -69.95270934349338 490.48171756016717 183 177 146
-72.30695859011571 -28.66777399924363 210.87017332728715 234 226 200
-102.08820624493853 -15.79432890529986 182.49527437514078 174 170 146
-77.77895684518307 -25.041413479200873 194.80502673448268 195 188 160
-79.42474596487018 -28.578923965745528 197.58593528785468 251 243 213
-243.2948227340793 19.2067493450889 288.1785156366447 103 96 93
-868.2292640482581 -640.9765137572094 2374.1275030139177 175 152 118
-311.59097740085286 -138.85825943750336 716.9235070764217 240 231 201
-121.15473807852852 10.45416087026064 189.74202205095816 74 66 56
-22.065152597808968 12.705422834009376 98.94150909139869 75 79 67
-111.45718273950644 14.858308094695008 166.07779340578304 81 68 57
-32.968989474118615 12.179192341328054 97.68561108299323 74 72 68
-27.74864940781704 12.268710605372107 102.84765422843668 65 64 58
-150.72509199494215 25.233293159795622 134.20430693350707 127 131 126
-707.9454894050102 -279.57819788788464 1917.8380564967304 200 192 173
-31.143017281999047 -16.680040749758646 137.75036472500912 221 207 170
-35.88018877716593 -0.5779939088476175 64.40820922993657 105 92 70
-102.20578120668154 15.199732675076707 152.4469752159653 88 81 72
103.35026013100703 -57.58622504965221 358.5769386090216 198 187 152
-97.12486001886857 -37.60257195592018 201.3369758230939 214 200 166
-67.58450936240376 -0.90604411999548 122.91142594488232 74 57 36
-96.11905931634236 5.695499400546753 126.32667921672723 199 193 188
-110.93374307932993 16.769108509231444 165.21667401550584 99 92 86
-35.1931942131788 -0.5623353229499397 64.69160108478157 216 210 192
-186.96358475713646 18.941764979776888 192.1741312826862 132 123 115
-351.19974186985985 -2.2734050572031883 431.89346542184956 155 153 143
-143.38518299258962 -15.272428897991155 175.93560462911492 182 170 148
-80.1320740800031 -13.870774878782887 156.55454382518417 193 191 174
-77.9708932409734 -32.76107759128691 205.96687439657572 206 194 164
-89.293849277512 -0.9050933287801244 123.5251628997061 57 52 37
-107.33201941179225 -25.347518404878368 201.02491816174134 150 142 118
-97.40164351562707 -13.846363113612632 201.56131789167665 223 215 197
-90.54570428636444 4.8731043607458995 124.26004504528674 101 93 85
-1230.2362327317628 95.65845887246043 1106.0570770951363 151 149 141
-85.4533299230121 -0.5556310811496799 120.88102338692082 49 43 33
28.468641358073267 -27.60787736965434 195.3461415533646 214 205 172
-117.20157350291062 -26.807617820403944 223.56993248913813 189 183 161
-26.112811212416982 7.9588895065296965 88.4732377010263 106 103 97
-18.043250942514447 10.124306939549827 85.19048867445748 93 94 88
-133.5537006384631 15.673803900655223 137.04843854991924 87 81 64
-41.49771491973965 12.455116391118992 91.32541597337921 152 163 162
-83.11234228953957 -0.888737660442957 133.89680776411635 136 126 112
-136.5736394800694 20.5990664557166 200.49509349404065 79 77 67
-152.9916775186204 -16.288766592161668 191.52798588714114 56 52 31
-225.75573362171863 -11.20743380717035 274.8039318567954 81 77 53
-60.53964094755522 -38.26501406289856 197.77215290823085 147 134 116
-17.524442346729874 10.753569034014582 86.27025591226258 26 30 25
-279.3808170113131 -103.84524740669995 702.0750608477496 216 210 184
-68.52493114026642 -55.571117389682605 211.1526090394489 232 215 194
-404.8740275726477 19.44359986361711 425.0949083338227 97 96 83
-94.75819334802637 -34.47761492854833 227.63636293028625 190 182 159
-82.36508594217477 -22.2276281021196 183.2385725540507 136 130 105
-654.6439095573556 46.80586611231288 675.0212578961003 136 136 120
71.0904668586546 -40.28601456753078 248.9481272074093 238 232 201
-107.03818967921396 13.546868739109286 162.31750335290798 93 82 71
-81.4486280957276 9.744870871644517 130.23549935362752 60 52 42
-85.99537772241564 0.31382717417738465 127.6077552264493 240 235 220
-24.238176057441564 12.023439911434599 88.94101413499679 141 141 139
-1313.113816500374 -457.7478471109179 3855.0641518517305 181 172 153
-96.01564701929532 -30.24193049011444 242.2145283254622 154 148 122
